# .PCD v0.7 - Point Cloud Data file format
VERSION 0.7
FIELDS x y z
SIZE 4 4 4
TYPE F F F
COUNT 1 1 1
WIDTH 1463
HEIGHT 1
VIEWPOINT 0 0 0 1 0 0 0
POINTS 1463
DATA ascii
-0.4843429 0.63440007 1.5600001
-0.47691432 0.63440007 1.5600002
-0.46800002 0.6314286 1.5600001
-0.41335407 0.63433719 1.5631113
-0.48394051 0.64401478 1.5635
-0.47502336 0.64385456 1.5600002
-0.46529868 0.6452052 1.5600002
-0.45611429 0.64806861 1.5600001
-0.42309842 0.64496505 1.5600002
-0.41508719 0.64651614 1.563182
-0.48203906 0.65366286 1.567
-0.47624382 0.65337598 1.5656
-0.46502861 0.65222859 1.5600001
-0.45611429 0.65222859 1.5600001
-0.42194289 0.65222859 1.5600001
-0.4145143 0.65222859 1.5600001
-0.45720953 -0.58013147 1.5740001
-0.45720953 -0.57113719 1.5740001
-0.46020764 -0.56364191 1.5740001
-0.45720953 -0.56664002 1.5740001
-0.25273943 -0.55794555 1.5740001
-0.41423687 -0.47619748 1.574
-0.40410042 -0.46534726 1.5740002
-0.39724764 -0.46020764 1.5740001
-0.31330097 -0.46620384 1.5740001
-0.30280763 -0.46320572 1.5740001
-0.29831049 -0.46320572 1.5740001
-0.39499906 -0.45496097 1.5740001
-0.33128953 -0.45421144 1.5740001
-0.3927505 -0.44521716 1.5740002
-0.38525525 -0.4447175 1.5740002
-0.33328828 -0.44521713 1.574
-0.55494744 -0.43352461 1.5740002
-0.5429551 -0.43202552 1.5740001
-0.53815812 -0.43022668 1.5740001
-0.3932502 -0.4382216 1.574
-0.38375622 -0.43922096 1.5740001
-0.37326288 -0.43450966 1.5740002
-0.3650181 -0.43097621 1.5740001
-0.35477462 -0.43322477 1.5740002
-0.34478098 -0.43622288 1.5740001
-0.3357867 -0.43922096 1.5740001
-0.55494744 -0.42363089 1.5740001
-0.54565334 -0.4272286 1.5740001
-0.53216195 -0.4272286 1.5740001
-0.52016956 -0.4212324 1.5740001
-0.51717144 -0.4212324 1.5740001
-0.50517905 -0.42622924 1.574
-0.49468574 -0.42572954 1.5740001
-0.48269337 -0.4212324 1.5740001
-0.36366898 -0.42602935 1.5740001
-0.3582724 -0.4272286 1.5740001
-0.55414796 -0.41523623 1.574
-0.47519812 -0.41823429 1.5740001
-0.46920192 -0.41223812 1.5740001
-0.55314857 -0.40924001 1.5740001
-0.46470478 -0.40924001 1.5740001
-0.45720953 -0.40024573 1.5740001
-0.55015051 -0.39125144 1.5740001
-0.45571047 -0.39424956 1.5740001
-0.55015051 -0.3867543 1.5740001
-0.54615301 -0.38325652 1.574
-0.45421144 -0.38825336 1.5740001
-0.44671619 -0.38375622 1.5740001
-0.54115623 -0.37775999 1.5740001
-0.53516006 -0.37676069 1.5740002
-0.52526629 -0.37266326 1.5740002
-0.44221908 -0.37925905 1.5740001
-0.43622282 -0.37376258 1.5740002
-0.57533455 -0.36546785 1.5740001
-0.56514096 -0.36726668 1.574
-0.55314863 -0.36426857 1.5740001
-0.54415429 -0.36389381 1.5740002
-0.53558838 -0.36512518 1.5740002
-0.52616572 -0.36726668 1.574
-0.50218099 -0.36127049 1.5740001
-0.43097621 -0.36501813 1.5740001
-0.4272286 -0.36426857 1.574
-0.60336667 -0.35302573 1.5740001
-0.59512192 -0.35347545 1.5740001
-0.58462858 -0.35527432 1.5740002
-0.42243162 -0.35587394 1.5740001
-0.36127049 -0.35227621 1.5740001
-0.35227621 -0.35227621 1.5740001
-0.34478098 -0.35227621 1.5740001
-0.61086196 -0.34553051 1.5740001
-0.60461587 -0.34578034 1.5740002
-0.59545505 -0.34461442 1.5740002
-0.41523623 -0.34702954 1.5740001
-0.40774095 -0.34178287 1.5740001
-0.3935 -0.34403145 1.5740001
-0.38450575 -0.34553051 1.5740001
-0.37416232 -0.34328195 1.5740002
-0.3646017 -0.34494758 1.5740002
-0.35527429 -0.34518984 1.5740002
-0.34603021 -0.34453115 1.5740002
-0.61086196 -0.33353812 1.5740001
-0.604491 -0.33391288 1.5740002
-0.59662098 -0.3357867 1.5740001
-0.40414324 -0.33488727 1.5740002
-0.37026477 -0.33278859 1.5740001
-0.36512518 -0.33385935 1.5740002
-0.3546747 -0.33428764 1.5740001
-0.34518984 -0.3340151 1.5740002
-0.33368802 -0.33368802 1.5740001
-0.32829145 -0.33728573 1.5740001
-0.31330097 -0.33428764 1.5740001
-0.61460954 -0.32529333 1.5740002
-0.40324381 -0.32529333 1.5740001
-0.39724764 -0.32379431 1.5740001
-0.36576763 -0.32829145 1.5740001
-0.35227621 -0.32829145 1.5740001
-0.34515575 -0.32641762 1.5740002
-0.33728573 -0.32679239 1.5740001
-0.31330097 -0.32379431 1.5740001
-0.64009339 -0.31030288 1.5740001
-0.62810099 -0.31180191 1.5740001
-0.61850709 -0.31569946 1.5740001
-0.39724764 -0.31929716 1.5740001
-0.31210172 -0.31569946 1.5740001
-0.30355716 -0.3140505 1.5740001
-0.2953124 -0.31180191 1.5740001
-0.62660193 -0.30430669 1.5740001
-0.61910671 -0.30430669 1.574
-0.2953124 -0.30730477 1.5740001
-0.62810099 -0.2953124 1.574
-0.61910671 -0.2953124 1.574
-0.29231429 -0.29231429 1.5740001
-0.28931621 -0.29231429 1.5740001
-0.6271016 -0.28481904 1.5740002
-0.61810738 -0.28531873 1.5740002
-0.2953124 -0.28481904 1.5740002
-0.28931621 -0.28631809 1.574
-0.62660193 -0.2735762 1.5740001
-0.61790746 -0.27492535 1.5740001
-0.30130857 -0.27582479 1.5740001
-0.29488412 -0.27518234 1.5740002
-0.28931621 -0.27132761 1.5740001
-0.62810099 -0.26383239 1.5740001
-0.61790746 -0.26473182 1.5740001
-0.29381335 -0.26533145 1.5740002
-0.28751734 -0.26653066 1.5740001
-0.62810099 -0.25633717 1.574
-0.61850709 -0.25573754 1.5740001
-0.58193028 -0.25273943 1.5740001
-0.57353568 -0.25154021 1.5740001
-0.56664002 -0.25034097 1.5740001
-0.29231429 -0.25783622 1.5740001
-0.28531873 -0.25500467 1.5740002
-0.27432573 -0.25034097 1.574
-0.26383239 -0.25034097 1.5740001
-0.25933525 -0.25034097 1.5740001
-0.66407812 -0.24434477 1.5740001
-0.63109905 -0.24134667 1.5740001
-0.62810099 -0.24134667 1.5740001
-0.61685812 -0.24359526 1.5740001
-0.58163047 -0.24584381 1.5740001
-0.5741353 -0.24434474 1.5740002
-0.56514096 -0.24434477 1.5740002
-0.55914479 -0.24134667 1.5740001
-0.28152117 -0.24494438 1.5740001
-0.27389744 -0.24477307 1.5740002
-0.26533145 -0.24434477 1.5740002
-0.25933525 -0.24434477 1.574
-0.63184857 -0.23460096 1.5740001
-0.62810099 -0.23535049 1.574
-0.61520922 -0.23475084 1.5740002
-0.60511559 -0.23335175 1.574
-0.59512192 -0.23235239 1.574
-0.58013147 -0.23535049 1.574
-0.57413524 -0.23535047 1.5740002
-0.55314857 -0.23460096 1.5740001
-0.28032193 -0.23535049 1.574
-0.27432573 -0.23535047 1.5740002
-0.2668305 -0.23684955 1.5740001
-0.63238394 -0.2254996 1.5740002
-0.62450325 -0.22545676 1.5740002
-0.61583608 -0.22608365 1.5740002
-0.6041162 -0.22425754 1.5740002
-0.59512198 -0.22485717 1.5740002
-0.58472848 -0.22455737 1.574
-0.57440782 -0.22526598 1.5740002
-0.55134976 -0.22695582 1.5740001
-0.28107145 -0.2226086 1.5740001
-0.27465883 -0.22568996 1.5740002
-0.26832953 -0.22935429 1.5740001
-0.63409716 -0.21436381 1.574
-0.62360382 -0.21436381 1.5740002
-0.61910671 -0.21436381 1.574
-0.6041162 -0.21436381 1.5740002
-0.59512192 -0.21436381 1.5740002
-0.58421975 -0.21436381 1.5740002
-0.57713336 -0.21586287 1.5740001
-0.55164951 -0.21436381 1.5740001
-0.28417662 -0.21607701 1.5740002
-0.27732381 -0.21736191 1.5740001
-0.6325981 -0.20462 1.5740001
-0.62510282 -0.20536952 1.5740002
-0.61430979 -0.20536955 1.5740002
-0.6041162 -0.20536955 1.5740002
-0.59362286 -0.20611905 1.5740001
-0.58503741 -0.20536952 1.5740002
-0.57713336 -0.20836763 1.5740001
-0.55164957 -0.20836763 1.5740001
-0.28332001 -0.20611905 1.5740002
-0.63382465 -0.19473992 1.5740002
-0.62810099 -0.19487619 1.5740001
-0.61386001 -0.19450143 1.5740002
-0.60384363 -0.19528504 1.5740002
-0.59484941 -0.19528502 1.5740002
-0.58612764 -0.19547583 1.5740002
-0.53815812 -0.19037905 1.5740001
-0.29471278 -0.19397676 1.5740001
-0.28471911 -0.19457643 1.574
-0.27582479 -0.19262764 1.5740001
-0.26383239 -0.19637525 1.5740001
-0.63324058 -0.18481116 1.5740002
-0.62472814 -0.18475762 1.5740002
-0.6161086 -0.18588191 1.5740002
-0.6041162 -0.18438287 1.574
-0.59587145 -0.18513238 1.5740001
-0.58492839 -0.18498248 1.5740001
-0.54115623 -0.18438287 1.5740001
-0.53815812 -0.18438286 1.5740001
-0.29431304 -0.18388319 1.5740002
-0.28631809 -0.18438287 1.5740002
-0.6325981 -0.17538857 1.5740002
-0.62472808 -0.17501381 1.5740002
-0.61510921 -0.1743892 1.574
-0.6041162 -0.17239048 1.574
-0.59512192 -0.17453197 1.5740002
-0.5866273 -0.17488889 1.5740002
-0.53815812 -0.17688763 1.5740001
-0.29381335 -0.17688763 1.5740001
-0.28631809 -0.17538857 1.5740002
-0.63209838 -0.16589461 1.5740002
-0.62510288 -0.16596599 1.5740002
-0.61447328 -0.16666684 1.5740002
-0.6041162 -0.16639431 1.5740002
-0.59362286 -0.16714382 1.5740001
-0.58612764 -0.16939239 1.574
-0.54265523 -0.16639429 1.5740001
-0.28272039 -0.16819315 1.5740001
-0.27582479 -0.16339619 1.5740002
-0.63109905 -0.15440191 1.574
-0.60186762 -0.15515144 1.5740001
-0.59512192 -0.15140381 1.5740001
-0.5471524 -0.15440191 1.5740001
-0.27252686 -0.15500154 1.5740001
-0.26832953 -0.15140381 1.5740001
-0.63184857 -0.14615715 1.5740001
-0.62810099 -0.14540762 1.574
-0.26683047 -0.14540762 1.5740002
-0.63109905 -0.13791239 1.5740001
-0.62810099 -0.13791239 1.5740001
-0.54615301 -0.13441461 1.574
-0.27132761 -0.13341524 1.5740001
-0.26533148 -0.13491429 1.5740002
-0.25933525 -0.1319162 1.5740001
-0.55015051 -0.12442096 1.5740001
-0.5471524 -0.12142286 1.5740001
-0.27132761 -0.12292191 1.5740001
-0.26618806 -0.12484925 1.5740002
-0.25933525 -0.12741905 1.5740001
-0.5471524 -0.11542667 1.574
-0.27252686 -0.11482705 1.5740001
-0.26733017 -0.1174254 1.574
-0.55015051 -0.1004362 1.5740001
-0.5471524 -0.10643239 1.574
-0.27507526 -0.10493334 1.5740002
-0.55314857 -0.091441907 1.5740001
-0.27552497 -0.095039621 1.5740001
-0.55614668 -0.085445717 1.5740001
-0.27132761 -0.086944766 1.5740001
-0.26832953 -0.082447626 1.5740001
-0.56214285 -0.076451428 1.5740001
-0.26473182 -0.077051051 1.5740001
-0.56514096 -0.067457147 1.5740001
-0.25633717 -0.061460953 1.5740001
-0.56514096 -0.056963809 1.5740001
-0.25558764 -0.054715239 1.5740001
-0.56514096 -0.043472383 1.574
-0.25306651 -0.045380261 1.5740002
-0.56514096 -0.034478098 1.574
-0.25184 -0.034478098 1.5740001
-0.56514096 -0.025483809 1.574
-0.25258952 -0.026233334 1.5740001
-0.57113719 -0.013491429 1.574
-0.56713969 -0.018488254 1.574
-0.25184 -0.014990477 1.5740001
-0.5756343 -0.004497143 1.5740001
-0.25034097 -0.004497143 1.574
-0.24734287 -0.0029980952 1.5740001
-0.57713336 0.004497143 1.574
-0.24584383 0.004497143 1.5740001
-0.57713336 0.011992382 1.5740001
-0.24494438 0.015290287 1.5740001
-0.58013147 0.023984764 1.5740001
-0.2420962 0.024734288 1.5740001
-0.23834857 0.028481906 1.5740001
-0.58312953 0.037476193 1.5740001
-0.23684953 0.034478098 1.5740002
-0.24134667 0.049468573 1.5740001
-0.23706369 0.044328984 1.5740002
-0.24234603 0.055464763 1.574
-0.23834857 0.058462858 1.5740001
-0.25034097 0.061460953 1.5740001
-0.2450943 0.063709527 1.5740001
-0.64683908 0.077200949 1.5740001
-0.25094059 0.075851813 1.5740001
-0.24605796 0.074309938 1.5740002
-0.66707623 0.086944766 1.5740001
-0.65358478 0.086944766 1.5740001
-0.64908767 0.086944766 1.5740001
-0.26333269 0.087444447 1.574
-0.25383875 0.084446348 1.5740002
-0.66407812 0.094439998 1.5740001
-0.65508389 0.094440013 1.5740002
-0.64608955 0.094439998 1.5740002
-0.59212381 0.094440006 1.5740001
-0.25933525 0.095939055 1.5740001
-0.67007428 0.10793144 1.5740001
-0.66380554 0.10534217 1.5740002
-0.65508384 0.10380906 1.5740002
-0.64459056 0.10493335 1.574
-0.63484669 0.10643239 1.5740002
-0.62810099 0.10793144 1.5740001
-0.58912575 0.10443366 1.574
-0.25708669 0.10493334 1.5740001
-0.67127353 0.11602628 1.5740001
-0.66493469 0.11499836 1.5740002
-0.64234191 0.11392763 1.5740001
-0.63409716 0.11542666 1.5740002
-0.62810099 0.11542668 1.574
-0.58812636 0.11542667 1.574
-0.25258952 0.1161762 1.5740001
-0.68356574 0.12741905 1.5740001
-0.67340553 0.1250872 1.5740002
-0.66557717 0.12142286 1.5740001
-0.64159238 0.12442096 1.5740002
-0.63409716 0.12442096 1.5740002
-0.62810099 0.12442095 1.574
-0.58912575 0.12442096 1.5740001
-0.25154021 0.12382133 1.5740001
-0.67457151 0.13491429 1.5740002
-0.66707623 0.13941143 1.5740001
-0.63409716 0.13491428 1.5740002
-0.62810099 0.13491429 1.5740001
-0.58462858 0.13341525 1.5740001
-0.25419566 0.13384354 1.5740002
-0.67569578 0.14578238 1.5740002
-0.63109905 0.14390858 1.5740001
-0.6271016 0.14540763 1.574
-0.26233333 0.14840572 1.5740001
-0.25933525 0.14540762 1.574
-0.68206668 0.15590096 1.5740001
-0.67756957 0.15140381 1.5740001
-0.62330401 0.15380228 1.5740001
-0.61696523 0.15483022 1.5740002
-0.58612764 0.15740001 1.5740001
-0.26233333 0.15290287 1.5740001
-0.25933525 0.15590096 1.5740001
-0.67906862 0.16939239 1.5740001
-0.62338966 0.16425279 1.5740002
-0.61482376 0.16489525 1.5740001
-0.60711432 0.16939239 1.5740001
-0.58612764 0.16519505 1.5740001
-0.25462395 0.16468109 1.5740002
-0.67906862 0.17538857 1.574
-0.62210476 0.17239048 1.5740001
-0.61371017 0.1729901 1.5740001
-0.60511559 0.17638795 1.5740002
-0.5876267 0.17538857 1.5740002
-0.25184 0.17538857 1.5740001
-0.60361654 0.18338351 1.5740002
-0.59512192 0.18738095 1.574
-0.58837622 0.18363334 1.5740001
-0.25034097 0.18438287 1.574
-0.60486573 0.19787431 1.5740001
-0.59539455 0.19446737 1.5740002
-0.58732688 0.1975745 1.5740001
-0.25094059 0.19577563 1.5740001
-0.62360382 0.20686857 1.5740001
-0.61648339 0.20574428 1.5740002
-0.60374141 0.2057443 1.5740002
-0.59812003 0.20237143 1.5740001
-0.58362919 0.20536952 1.5740002
-0.25273943 0.20596917 1.5740001
-0.24734287 0.20237143 1.5740001
-0.66108 0.21736191 1.5740001
-0.65358478 0.21436381 1.5740001
-0.64429069 0.21556306 1.5740001
-0.63609594 0.21636255 1.574
-0.62360382 0.21436381 1.5740002
-0.61490935 0.21436381 1.5740002
-0.60531545 0.21436381 1.5740001
-0.58432877 0.21496344 1.5740001
-0.26233333 0.21586287 1.5740001
-0.25833592 0.21436381 1.574
-0.64009339 0.22485715 1.5740001
-0.63409716 0.22485717 1.5740002
-0.62690175 0.22395773 1.5740001
-0.6146096 0.22036001 1.5740001
-0.60561526 0.22036001 1.5740001
-0.59362286 0.22935429 1.5740001
-0.58562797 0.22385778 1.5740002
-0.26383239 0.22485715 1.5740001
-0.6430915 0.23684953 1.5740002
-0.63447195 0.23572525 1.5740002
-0.62690175 0.23475087 1.5740001
-0.59212381 0.23385143 1.5740001
-0.58687717 0.23610002 1.5740001
-0.26608098 0.23610002 1.5740001
-0.64189219 0.24314551 1.5740001
-0.63409716 0.24434479 1.5740002
-0.6255312 0.24520138 1.5740002
-0.6161086 0.24734287 1.5740001
-0.6041162 0.24734287 1.5740001
-0.58552802 0.24464457 1.5740002
-0.29231429 0.24734287 1.5740001
-0.27132761 0.24134667 1.5740001
-0.26832953 0.24134667 1.5740001
-0.64159238 0.25333905 1.5740002
-0.63469678 0.25154021 1.5740001
-0.62450325 0.25154018 1.5740001
-0.61447328 0.25442928 1.5740002
-0.6041162 0.25633717 1.5740002
-0.59812003 0.25933525 1.5740001
-0.58270127 0.25676546 1.5740002
-0.30403417 0.25524694 1.5740002
-0.29831049 0.25483811 1.5740001
-0.61225396 0.26533145 1.5740002
-0.604491 0.26495668 1.5740002
-0.59512192 0.26533145 1.5740002
-0.5857529 0.26495668 1.5740002
-0.31180191 0.26832953 1.5740001
-0.30280766 0.26533142 1.5740002
-0.29651165 0.26653069 1.5740001
-0.61011243 0.27432573 1.574
-0.60591507 0.27372611 1.5740001
-0.59426534 0.27432573 1.5740002
-0.585271 0.27475402 1.5740002
-0.38525528 0.27732381 1.5740001
-0.31180191 0.27432573 1.5740002
-0.30430672 0.27432573 1.5740002
-0.29568717 0.27470049 1.5740002
-0.5867939 0.28365314 1.5740002
-0.38225716 0.28481907 1.5740001
-0.37850952 0.28706765 1.5740001
-0.31158778 0.28546149 1.5740002
-0.30530608 0.2843194 1.5740002
-0.29606193 0.28107145 1.5740001
-0.28931621 0.28032193 1.5740001
-0.63559622 0.29831049 1.5740001
-0.61490935 0.29471278 1.5740001
-0.58912575 0.29381335 1.5740001
-0.38439867 0.2953124 1.5740002
-0.37850952 0.2953124 1.5740001
-0.31030288 0.29381335 1.5740001
-0.30430669 0.29231429 1.5740001
-0.29831049 0.29831049 1.5740001
-0.63184857 0.30505618 1.5740001
-0.62360382 0.30430669 1.5740002
-0.6161086 0.30430669 1.5740002
-0.58837622 0.30505621 1.5740001
-0.38439867 0.30473498 1.5740002
-0.37925902 0.30430666 1.574
-0.31180191 0.30430669 1.5740002
-0.63109905 0.31030288 1.5740001
-0.62330401 0.31330097 1.5740001
-0.61460954 0.31480002 1.574
-0.6041162 0.31779811 1.5740002
-0.58512825 0.31529972 1.5740002
-0.38525531 0.31450018 1.5740002
-0.37676063 0.31629908 1.5740002
-0.31330097 0.31729844 1.574
-0.30730477 0.31929716 1.5740001
-0.29231429 0.31629905 1.5740001
-0.60231733 0.32469371 1.5740001
-0.59662098 0.32829145 1.5740001
-0.5876267 0.32379431 1.5740001
-0.38525528 0.32443672 1.5740002
-0.37283459 0.32443672 1.5740002
-0.36576763 0.32829145 1.5740001
-0.31180191 0.32529333 1.5740002
-0.3867543 0.33428764 1.5740002
-0.37026477 0.3357867 1.5740001
-0.36606744 0.33428764 1.5740001
-0.31180191 0.33428764 1.5740002
-0.38625464 0.34478095 1.5740002
-0.37026477 0.34478098 1.5740001
-0.36666706 0.34388152 1.5740001
-0.31210172 0.34508079 1.5740001
-0.58133066 0.3546747 1.5740001
-0.39125144 0.35227621 1.5740001
-0.387254 0.35727301 1.574
-0.37026477 0.35377526 1.5740001
-0.36726668 0.35527432 1.574
-0.35527429 0.35527432 1.574
-0.31255144 0.35452479 1.5740001
-0.39424953 0.36576763 1.5740001
-0.36341196 0.36384028 1.5740002
-0.35647354 0.36486822 1.5740001
-0.31255144 0.36351907 1.5740001
-0.57713336 0.37476194 1.5740001
-0.39524889 0.37526163 1.5740002
-0.36246973 0.37266326 1.5740001
-0.35602382 0.37476191 1.5740002
-0.33128953 0.37626097 1.5740001
-0.31758398 0.37411949 1.5740002
-0.5756343 0.3867543 1.5740001
-0.39649811 0.38450572 1.5740001
-0.35302573 0.38450575 1.5740001
-0.34827876 0.387254 1.574
-0.33228889 0.387254 1.574
-0.32486504 0.38611189 1.5740002
-0.31829777 0.38325652 1.574
-0.57263625 0.39424956 1.5740002
-0.40024576 0.39424953 1.574
-0.39724764 0.3927505 1.5740001
-0.35227621 0.3927505 1.5740001
-0.34437215 0.39397696 1.5740002
-0.33428764 0.39424953 1.5740002
-0.32529333 0.39424953 1.5740002
-0.31829777 0.39624825 1.574
-0.57263625 0.40024573 1.5740001
-0.56514096 0.40474287 1.5740001
-0.40174478 0.40924001 1.5740001
-0.34242532 0.40410039 1.5740002
-0.33368802 0.40414324 1.5740002
-0.32469371 0.40414324 1.5740002
-0.31704858 0.40474284 1.5740002
-0.4042432 0.41523623 1.5740002
-0.34628001 0.41673523 1.5740001
-0.33278859 0.41823429 1.5740001
-0.32304478 0.41448671 1.5740001
-0.31779811 0.4152362 1.5740002
-0.57113719 0.4272286 1.5740001
-0.56664002 0.42572954 1.5740001
-0.40444309 0.42483014 1.5740002
-0.34028381 0.42423049 1.5740001
-0.33428764 0.42572954 1.5740002
-0.32304478 0.42423052 1.5740001
-0.31779811 0.42423049 1.5740002
-0.30505621 0.42647907 1.5740001
-0.40474281 0.43429551 1.5740001
-0.34028381 0.43172574 1.5740001
-0.3340151 0.434315 1.5740002
-0.32729208 0.43722224 1.574
-0.31715566 0.43622282 1.5740002
-0.30516332 0.43622282 1.5740002
-0.40474287 0.44521716 1.5740001
-0.33128953 0.44221908 1.5740001
-0.32529333 0.44221911 1.574
-0.31629905 0.44446763 1.5740002
-0.30430669 0.44371814 1.5740001
-0.56364191 0.45421144 1.5740001
-0.40924001 0.45421144 1.5740001
-0.32229525 0.45421147 1.574
-0.31809792 0.45361185 1.5740001
-0.41223812 0.46620384 1.5740001
-0.40924001 0.46470481 1.5740001
-0.31629905 0.46620381 1.574
-0.56314224 0.47519812 1.574
-0.55914479 0.47669715 1.5740001
-0.41598573 0.47519812 1.5740001
-0.40924001 0.47220001 1.5740001
-0.31629905 0.47519812 1.574
-0.56214285 0.48269337 1.5740001
-0.55689621 0.4849419 1.5740001
-0.41423687 0.4841924 1.574
-0.40924001 0.48119432 1.5740001
-0.31529972 0.48519173 1.574
-0.55114979 0.49368641 1.5740002
-0.4152362 0.49468574 1.5740001
-0.32229525 0.4901886 1.5740001
-0.31629905 0.4901886 1.5740001
-0.55015051 0.50517905 1.574
-0.5471524 0.5066781 1.5740001
-0.4152362 0.5066781 1.5740001
-0.5513497 0.51357377 1.5740001
-0.54535353 0.51537257 1.5740001
-0.4152362 0.51417333 1.574
-0.54329771 0.52316761 1.5740002
-0.53815812 0.52616572 1.5740001
-0.41673523 0.52166855 1.5740001
-0.54115623 0.53516001 1.574
-0.54115623 0.54415429 1.574
-0.53715873 0.54615301 1.574
-0.53316134 0.55364829 1.5740002
-0.52766478 0.56514096 1.5740002
-0.41223812 0.56514096 1.5740001
-0.52766478 0.57413524 1.5740002
-0.52496648 0.58492839 1.5740001
-0.40624189 0.58312953 1.574
-0.52216822 0.59512192 1.574
-0.40774095 0.59662098 1.5740001
-0.52316761 0.6041162 1.574
-0.40699142 0.60336667 1.5740001
-0.52316761 0.61550897 1.5740001
-0.40924001 0.61311048 1.5740001
-0.52116889 0.62310416 1.574
-0.51717144 0.62810099 1.5740001
-0.40924001 0.62510288 1.5740001
-0.51417333 0.63109905 1.574
-0.41223812 0.63559622 1.5740001
-0.40924001 0.63409716 1.574
-0.4901886 0.64908767 1.5740001
-0.41223812 0.64608955 1.574
-0.40924001 0.64159238 1.5740001
-0.4901886 0.65508384 1.574
-0.48719049 0.65508384 1.574
-0.41223812 0.65508384 1.574
-0.47064668 -0.58414674 1.5890001
-0.46585429 -0.58344477 1.5830002
-0.46354491 -0.57453758 1.5810002
-0.45924288 -0.57819426 1.5810001
-0.42129889 -0.482732 1.5810001
-0.42464137 -0.4779107 1.5890001
-0.41672248 -0.47284174 1.5842001
-0.41533318 -0.46516347 1.5858001
-0.4070448 -0.46325812 1.581
-0.32379478 -0.4641805 1.585
-0.31550643 -0.46476337 1.587
-0.30491999 -0.46241239 1.585
-0.29963717 -0.46225432 1.5810001
-0.55608171 -0.45218077 1.5858002
-0.54934001 -0.45248669 1.5890001
-0.41524005 -0.45542917 1.5865999
-0.40503716 -0.45472574 1.5810002
-0.39901432 -0.45322001 1.581
-0.32580581 -0.45564666 1.5852666
-0.31931335 -0.45854002 1.5890001
-0.55452967 -0.44560754 1.5836668
-0.54603285 -0.44370455 1.5860001
-0.42222002 -0.44643334 1.5890001
-0.41453999 -0.44507432 1.5874
-0.40524212 -0.44380516 1.5818002
-0.39901432 -0.44418573 1.581
-0.38998002 -0.44268 1.5810001
-0.33222571 -0.44326878 1.5842001
-0.32734999 -0.4462685 1.5872223
-0.55259717 -0.43816286 1.5810001
-0.5448119 -0.43675661 1.5821429
-0.53504002 -0.43226668 1.5870001
-0.52815336 -0.43130001 1.5890001
-0.51417685 -0.43258891 1.5863334
-0.50417715 -0.43399003 1.5850002
-0.49500638 -0.43499905 1.5867144
-0.48638535 -0.4325107 1.5890001
-0.4116267 -0.43735334 1.5890001
-0.40394419 -0.43417197 1.5872223
-0.39557266 -0.43515149 1.5810002
-0.38587353 -0.43487769 1.5810002
-0.37693051 -0.43314382 1.581
-0.35183525 -0.43314382 1.581
-0.34438127 -0.43286386 1.5836668
-0.33552271 -0.43517062 1.5853078
-0.56163144 -0.42461145 1.5810001
-0.52210003 -0.42827335 1.5890001
-0.51344866 -0.42712095 1.581
-0.49387431 -0.42912859 1.5810001
-0.48524511 -0.42647651 1.5823336
-0.47589746 -0.42403114 1.5863334
-0.40319529 -0.42567906 1.589
-0.39488077 -0.42505601 1.5845557
-0.38529223 -0.42505428 1.5815333
-0.37492284 -0.42461145 1.5810002
-0.36631879 -0.42224532 1.5810002
-0.35504743 -0.42431027 1.581
-0.34484771 -0.42505118 1.5865384
-0.33596 -0.42827335 1.5890001
-0.56447333 -0.41465336 1.5890001
-0.55862004 -0.41407144 1.581
-0.47096765 -0.41813812 1.585
-0.4655143 -0.41337287 1.5870001
-0.4116267 -0.41011333 1.5890001
-0.40378484 -0.41424063 1.589
-0.39498004 -0.4146533 1.5890001
-0.38529623 -0.4141123 1.5853639
-0.37513536 -0.41430256 1.5818892
-0.36583716 -0.41439429 1.5834002
-0.35522297 -0.4141753 1.5840772
-0.34682849 -0.41506606 1.589
-0.56220335 -0.40481669 1.5890001
-0.55636144 -0.40579003 1.5810001
-0.46225432 -0.4080486 1.5810001
-0.45625925 -0.40304479 1.5874002
-0.44946003 -0.40103334 1.5890001
-0.42222002 -0.40103334 1.5890001
-0.41404802 -0.40345463 1.589
-0.40406001 -0.40406001 1.589
-0.39535832 -0.40443832 1.589
-0.38503978 -0.40505907 1.5870001
-0.37440273 -0.40481666 1.5846922
-0.36544788 -0.40542358 1.5840001
-0.35624 -0.40454856 1.5850002
-0.3469317 -0.4036817 1.589
-0.56409502 -0.39498001 1.589
-0.55560857 -0.39600286 1.581
-0.45321998 -0.39550099 1.5810002
-0.44441554 -0.39464366 1.589
-0.43432665 -0.39460167 1.589
-0.42486835 -0.3946017 1.589
-0.41414893 -0.39598891 1.589
-0.40443832 -0.39535832 1.589
-0.39535832 -0.39460167 1.589
-0.38586 -0.39599764 1.5831819
-0.37484425 -0.39512807 1.5861429
-0.36483091 -0.39538342 1.5882
-0.35612908 -0.39571354 1.5875454
-0.34504005 -0.39498004 1.5890001
-0.33565736 -0.39376935 1.5890001
-0.58414674 -0.38287336 1.5890001
-0.57355338 -0.38514337 1.589
-0.5648517 -0.38590005 1.589
-0.55517834 -0.38438734 1.5810002
-0.54808003 -0.38094574 1.5810001
-0.45171428 -0.38998002 1.5810001
-0.44361264 -0.38632885 1.5830001
-0.43487653 -0.38460982 1.5836669
-0.42537278 -0.38474312 1.5853637
-0.41355714 -0.38580939 1.5836667
-0.40434355 -0.38577947 1.5867144
-0.39598861 -0.38566527 1.5869999
-0.3840394 -0.38540685 1.5824547
-0.37514734 -0.38573942 1.5883332
-0.36471334 -0.38589999 1.589
-0.35563335 -0.38590002 1.589
-0.34503999 -0.38590005 1.5890001
-0.33444667 -0.38590002 1.589
-0.26180667 -0.38287336 1.5890001
-0.25878 -0.38287336 1.5890001
-0.62198001 -0.37076667 1.5890001
-0.59473997 -0.37076667 1.5890001
-0.58444941 -0.37742537 1.5890001
-0.57525921 -0.37596321 1.5853637
-0.56497884 -0.3750245 1.5830002
-0.55560857 -0.37492287 1.5810002
-0.54567087 -0.37432057 1.5810002
-0.53653622 -0.37291527 1.581
-0.43289286 -0.37567574 1.5810001
-0.42461142 -0.37492287 1.5810002
-0.41285354 -0.37504095 1.5834618
-0.40405077 -0.37600917 1.5855715
-0.3955563 -0.37525183 1.5878572
-0.3841747 -0.37513536 1.5818892
-0.37451607 -0.37591654 1.5871542
-0.36471331 -0.37530664 1.5890001
-0.35563338 -0.37530664 1.5890001
-0.34504002 -0.37530667 1.5890002
-0.33444667 -0.37530664 1.5890001
-0.32839334 -0.3753067 1.5890001
-0.28602001 -0.37076667 1.5890001
-0.27507746 -0.374259 1.5890001
-0.26483333 -0.3753067 1.5890001
-0.25878 -0.37530667 1.5890001
-0.62448221 -0.36491176 1.5876669
-0.61528862 -0.36579487 1.5858002
-0.60531527 -0.36530855 1.585
-0.59474856 -0.36530861 1.585
-0.58528584 -0.36572286 1.5821429
-0.55560857 -0.36889997 1.581
-0.54657429 -0.3689 1.5810001
-0.42310572 -0.3658886 1.5810002
-0.41367564 -0.36607376 1.5818002
-0.40417674 -0.3654584 1.5810002
-0.39700341 -0.36555716 1.5832859
-0.3850522 -0.3656148 1.5810002
-0.37492287 -0.3658886 1.5810002
-0.36528832 -0.36486244 1.5821429
-0.35598215 -0.36548585 1.5867144
-0.34462729 -0.36498845 1.589
-0.33444667 -0.36471337 1.589
-0.30115333 -0.36168668 1.5890001
-0.29409111 -0.36370444 1.5890001
-0.28602001 -0.36471331 1.589
-0.27542669 -0.3647134 1.5890001
-0.26521167 -0.36509165 1.589
-0.6308943 -0.35233718 1.5810001
-0.62573379 -0.35542625 1.5831819
-0.61611098 -0.35575917 1.5810002
-0.60630101 -0.35886192 1.5810002
-0.59551001 -0.35911286 1.5810001
-0.58873433 -0.35986573 1.5810001
-0.42009434 -0.35685429 1.581
-0.41379768 -0.35575926 1.5810002
-0.40503716 -0.35534859 1.5810002
-0.39600286 -0.35534859 1.5810002
-0.38546288 -0.35534856 1.581
-0.37492287 -0.35534862 1.5810002
-0.36655778 -0.35651967 1.5810002
-0.35548547 -0.35712808 1.5810002
-0.34376287 -0.35625181 1.5821429
-0.33523557 -0.35503402 1.5875455
-0.32536668 -0.35563332 1.589
-0.31515169 -0.3548767 1.589
-0.30380169 -0.35525504 1.589
-0.29493323 -0.35543275 1.5881112
-0.28601998 -0.35563338 1.589
-0.27583942 -0.35590851 1.589
-0.26634666 -0.35714668 1.5890001
-0.63469195 -0.34413204 1.5890001
-0.62550384 -0.34455067 1.5826002
-0.61764401 -0.34420627 1.5810001
-0.60479528 -0.34380475 1.581
-0.41206381 -0.34681621 1.581
-0.40443486 -0.34661546 1.5810001
-0.39750856 -0.34782001 1.5810001
-0.37793431 -0.34782001 1.5810001
-0.34280095 -0.34581241 1.581
-0.33550724 -0.34546173 1.5826002
-0.32556963 -0.34533203 1.5846363
-0.31414917 -0.34499371 1.5874001
-0.30357468 -0.34564537 1.589
-0.29479736 -0.34594801 1.589
-0.28662536 -0.34503999 1.589
-0.27845335 -0.34050003 1.5890001
-0.63484329 -0.33368999 1.5890001
-0.62592542 -0.33533174 1.5836668
-0.61764401 -0.33637661 1.5810001
-0.60379148 -0.33878574 1.5810001
-0.34179714 -0.33878574 1.5810001
-0.33778191 -0.33778194 1.581
-0.32222289 -0.33878574 1.5810001
-0.31324244 -0.33440366 1.5872222
-0.30418003 -0.33444664 1.589
-0.29547834 -0.33482501 1.589
-0.28558761 -0.33531141 1.589
-0.27731836 -0.33406833 1.589
-0.64316666 -0.32536668 1.5890001
-0.63459671 -0.32324305 1.5818892
-0.62554061 -0.3254016 1.5810002
-0.61884862 -0.32975143 1.5810001
-0.31132048 -0.32489479 1.5830002
-0.30516666 -0.32427967 1.5836668
-0.29436716 -0.32397953 1.5810002
-0.28537324 -0.32541931 1.5839092
-0.27694002 -0.32461002 1.589
-0.26786 -0.32234001 1.5890001
-0.64468002 -0.31780002 1.5890001
-0.63591331 -0.31469429 1.5810002
-0.62637717 -0.31469432 1.5810002
-0.30716574 -0.31770572 1.5810001
-0.29342169 -0.31526595 1.5820001
-0.28589875 -0.31463936 1.5883335
-0.27572933 -0.31447071 1.5890002
-0.26569811 -0.31326002 1.589
-0.64689147 -0.30530286 1.5870001
-0.63691717 -0.30566001 1.5810002
-0.62667835 -0.30566001 1.5810001
-0.61884862 -0.30264857 1.5810001
-0.29240975 -0.3050577 1.5810001
-0.28602001 -0.30418003 1.589
-0.27603203 -0.3047854 1.589
-0.2668511 -0.30619779 1.5890001
-0.64468002 -0.2951 1.5890001
-0.63631493 -0.29572231 1.5810002
-0.62637717 -0.29512003 1.5810002
-0.2921086 -0.29813147 1.5810001
-0.28474 -0.29378107 1.5818892
-0.27542672 -0.29509997 1.5890001
-0.2668511 -0.29409111 1.5890001
-0.64114887 -0.28602001 1.5890001
-0.63465858 -0.28533289 1.5810001
-0.6256243 -0.28382716 1.5810001
-0.29060286 -0.28156859 1.5810001
-0.28457999 -0.28457999 1.5810002
-0.27519175 -0.28577873 1.5876669
-0.26569811 -0.28558761 1.589
-0.25651002 -0.28526336 1.5890001
-0.64014 -0.27845335 1.5890001
-0.63470757 -0.27438095 1.5830002
-0.62667835 -0.27614802 1.5810001
-0.29060286 -0.27705145 1.5810001
-0.28457999 -0.27554572 1.5810002
-0.27507809 -0.27659142 1.5870003
-0.26483333 -0.27542672 1.5890001
-0.25635865 -0.27512401 1.589
-0.23532334 -0.27164337 1.5890001
-0.22851335 -0.27088669 1.5890001
-0.63555861 -0.26600572 1.5870001
-0.62637717 -0.26500571 1.5810002
-0.28391081 -0.26450381 1.5810002
-0.27507934 -0.26495755 1.5832856
-0.26568601 -0.26541221 1.5875455
-0.25532413 -0.26287809 1.5863334
-0.24768223 -0.26281556 1.5890001
-0.23456666 -0.26483333 1.589
-0.22851335 -0.26483333 1.5890001
-0.64014 -0.25575334 1.5890001
-0.63315284 -0.25371289 1.5810001
-0.62637717 -0.2544657 1.5810002
-0.28156859 -0.25597143 1.5810001
-0.27455333 -0.2564581 1.5840001
-0.26512668 -0.25606626 1.5855715
-0.25446573 -0.25446573 1.5810002
-0.24606137 -0.25513482 1.5878572
-0.23456666 -0.25575334 1.589
-0.22851335 -0.25878 1.5890001
-0.66132671 -0.24516001 1.5890001
-0.6534574 -0.24304132 1.5890001
-0.64619339 -0.24478167 1.589
-0.6347661 -0.24543142 1.5810002
-0.6252479 -0.24580787 1.5810002
-0.27554572 -0.24543144 1.5810001
-0.25480229 -0.24544704 1.585
-0.24743003 -0.24667335 1.589
-0.23638268 -0.24727869 1.5890001
-0.66132671 -0.23759334 1.5890001
-0.65376008 -0.23456667 1.5890001
-0.64553273 -0.23378445 1.5836668
-0.63892478 -0.23589526 1.5810002
-0.62637717 -0.23639716 1.5810002
-0.57066572 -0.23489144 1.5810001
-0.56488103 -0.23498984 1.5816668
-0.55862004 -0.23338573 1.581
-0.26350001 -0.23420702 1.5810002
-0.25532064 -0.23501758 1.5846366
-0.24629501 -0.23418835 1.589
-0.23759334 -0.23154001 1.5890001
-0.65376008 -0.22700001 1.5890001
-0.64607745 -0.22491397 1.5850002
-0.63917571 -0.22359857 1.5810001
-0.57141858 -0.22359857 1.5810001
-0.56495869 -0.22447589 1.581889
-0.55661237 -0.22334762 1.5810002
-0.27454188 -0.22334762 1.581
-0.26500574 -0.22435145 1.5810002
-0.2553224 -0.22510995 1.5863334
-0.24580857 -0.22418952 1.589
-0.23759334 -0.22548667 1.5890001
-0.65224671 -0.21338002 1.5890001
-0.6465264 -0.21507934 1.5855715
-0.63992858 -0.21531714 1.581
-0.60078001 -0.21531714 1.5810001
-0.59325147 -0.21531714 1.5810001
-0.57427949 -0.21501601 1.5810002
-0.56495869 -0.2154399 1.581889
-0.55786717 -0.21607001 1.5810001
-0.27468529 -0.21531714 1.5810002
-0.26500571 -0.21531713 1.5810002
-0.25540918 -0.21525964 1.585
-0.24580859 -0.21446097 1.5890001
-0.23608001 -0.21489334 1.5890001
-0.65224671 -0.2043 1.5890001
-0.64516449 -0.20442791 1.5832859
-0.63917571 -0.20628287 1.5810001
-0.62487149 -0.20226763 1.5810002
-0.61282575 -0.20026001 1.5810001
-0.58271146 -0.20327145 1.5810001
-0.57488173 -0.20447598 1.581
-0.56464291 -0.20477717 1.5810002
-0.55590975 -0.20387372 1.5810002
-0.54958576 -0.20176572 1.5810001
-0.29060286 -0.20327143 1.5810001
-0.28759143 -0.20176572 1.5810001
-0.27554572 -0.20477712 1.5810002
-0.26500571 -0.20477714 1.581
-0.25512841 -0.20511317 1.5868182
-0.24557275 -0.20457517 1.589
-0.65224671 -0.19370668 1.5890001
-0.6449905 -0.19440351 1.5823334
-0.63992858 -0.19724858 1.5810001
-0.62487149 -0.19423716 1.5810002
-0.61583722 -0.19724858 1.5810001
-0.58346432 -0.19423714 1.5810001
-0.57513869 -0.19437085 1.5838569
-0.5645057 -0.19532306 1.5874001
-0.55585867 -0.19464505 1.5878572
-0.54657435 -0.19373524 1.5810002
-0.27434114 -0.19483943 1.5810001
-0.26513752 -0.19373162 1.5818002
-0.25575334 -0.19522002 1.589
-0.24894334 -0.19522001 1.5890001
-0.65224671 -0.18412222 1.5890001
-0.6465286 -0.18487361 1.5855715
-0.63992858 -0.18369715 1.5810001
-0.58346432 -0.18445 1.5810001
-0.57556385 -0.18409574 1.5852355
-0.56431663 -0.18472217 1.5861433
-0.5553934 -0.18462668 1.5890001
-0.5464924 -0.18450636 1.5836668
-0.28156859 -0.18520285 1.581
-0.27438095 -0.18518491 1.5830002
-0.26519409 -0.18443935 1.5883847
-0.25575334 -0.18462668 1.5890001
-0.24970001 -0.18916668 1.5890001
-0.65224671 -0.17554668 1.5890001
-0.64666003 -0.17539556 1.5876669
-0.63992858 -0.17466286 1.5810001
-0.6278829 -0.17014572 1.5810001
-0.5977686 -0.17014572 1.5810001
-0.5842067 -0.17530827 1.5823334
-0.57586026 -0.17408025 1.5860001
-0.5632627 -0.175244 1.5890001
-0.55582571 -0.17403333 1.589
-0.54532063 -0.17453696 1.5826002
-0.28156859 -0.17616858 1.581
-0.27497864 -0.17463443 1.5827142
-0.26530227 -0.17394572 1.5882
-0.25676224 -0.17504223 1.5890001
-0.64619339 -0.16495334 1.5890001
-0.63741904 -0.16311906 1.5810002
-0.62562436 -0.16261715 1.5810001
-0.61659002 -0.1618643 1.5810001
-0.60454428 -0.16337 1.5810001
-0.5947572 -0.16369264 1.5810002
-0.58542919 -0.1640742 1.5831821
-0.57658929 -0.16577676 1.5882
-0.56447333 -0.16646667 1.5890001
-0.55577171 -0.16533166 1.589
-0.54808003 -0.16412285 1.5810001
-0.27246717 -0.16529858 1.5850002
-0.26544079 -0.16437896 1.5860909
-0.25726667 -0.16495334 1.5890001
-0.64716452 -0.1557451 1.5876669
-0.63503087 -0.1549561 1.5824547
-0.62401104 -0.15551877 1.5810002
-0.61583722 -0.15508859 1.5810002
-0.60567355 -0.15471214 1.5810002
-0.59438074 -0.15546501 1.5810002
-0.58642858 -0.15567714 1.5870003
-0.55690664 -0.15587334 1.5890001
-0.54958576 -0.15207715 1.5810001
-0.26519701 -0.15572044 1.5846366
-0.25726667 -0.15587334 1.5890001
-0.65224671 -0.14074001 1.5890001
-0.64485437 -0.14463715 1.5820001
-0.63769072 -0.14464286 1.5820003
-0.62464178 -0.14467429 1.5823336
-0.61526769 -0.14453694 1.5842003
-0.60403091 -0.14436463 1.5828462
-0.59544283 -0.14487816 1.5859231
-0.58826792 -0.14614762 1.5867145
-0.55409622 -0.14463143 1.589
-0.54958576 -0.14906572 1.5810001
-0.26177916 -0.14519389 1.5810002
-0.25499716 -0.14485525 1.5843334
-0.24753812 -0.14376667 1.589
-0.65224671 -0.13771334 1.5890001
-0.64613676 -0.13527001 1.5870001
-0.6351881 -0.13336746 1.5823336
-0.62496161 -0.13445556 1.5863333
-0.6162414 -0.13520519 1.5872222
-0.60507876 -0.13462891 1.5883335
-0.59474009 -0.13468666 1.589
-0.5886867 -0.13468668 1.5890001
-0.55475193 -0.13359477 1.585
-0.54958576 -0.13702001 1.5810001
-0.26048857 -0.13702001 1.5810001
-0.25474846 -0.13415927 1.582778
-0.24606803 -0.13498935 1.589
-0.64316666 -0.12762445 1.5890001
-0.63309133 -0.1255901 1.5850002
-0.62500668 -0.12787667 1.5890001
-0.60684669 -0.12863334 1.5890001
-0.56144667 -0.12258001 1.5890001
-0.55552852 -0.12523028 1.5842001
-0.2619943 -0.12346858 1.5810001
-0.25460708 -0.12504286 1.5818892
-0.246068 -0.12530401 1.589
-0.56144667 -0.11652667 1.5890001
-0.55592453 -0.11541048 1.5855714
-0.26374105 -0.11439855 1.5824547
-0.25532034 -0.11481652 1.5863334
-0.24734595 -0.11585408 1.589
-0.56144667 -0.10139333 1.5890001
-0.55504 -0.10557779 1.5836668
-0.27187523 -0.10470991 1.5842001
-0.26575473 -0.10504144 1.587
-0.25661808 -0.10485239 1.589
-0.64135063 -0.094734669 1.5890001
-0.6352973 -0.094734669 1.5890001
-0.56144667 -0.095340006 1.5890001
-0.55560857 -0.09636572 1.5810001
-0.27253428 -0.094859995 1.581
-0.26600572 -0.09522 1.587
-0.25726667 -0.09836667 1.5890001
-0.64283043 -0.084578529 1.589
-0.63527775 -0.084703252 1.5882
-0.56380904 -0.084533341 1.5850002
-0.55862004 -0.088837147 1.5810001
-0.26480335 -0.085754454 1.5843334
-0.2577711 -0.083737783 1.5890001
-0.65527338 -0.074153334 1.5890001
-0.64266223 -0.075162224 1.5890001
-0.63635665 -0.074153334 1.5890001
-0.57052666 -0.072640002 1.5890001
-0.2614924 -0.076791428 1.581
-0.25588015 -0.073514156 1.5844287
-0.246068 -0.071732 1.5890001
-0.65527338 -0.068100005 1.5890001
-0.64014 -0.068100005 1.5890001
-0.57355338 -0.063560002 1.5890001
-0.25440741 -0.065205954 1.5830001
-0.246068 -0.064770669 1.589
-0.57355338 -0.055993337 1.5890001
-0.2526589 -0.056313716 1.5810001
-0.24505524 -0.055971112 1.5883335
-0.5732004 -0.044620816 1.5844287
-0.2448457 -0.045342855 1.5870001
-0.23759334 -0.045904446 1.5890001
-0.57447773 -0.034299187 1.5855715
-0.25145429 -0.037642859 1.5810001
-0.24474221 -0.034749527 1.5863334
-0.23759334 -0.031780001 1.5890001
-0.58263338 -0.024213335 1.5890001
-0.57464987 -0.025640318 1.5836668
-0.25145429 -0.02409143 1.5810001
-0.2448457 -0.025694288 1.5870003
-0.58515555 -0.01462889 1.5890001
-0.57753563 -0.01485619 1.5821429
-0.25145429 -0.012045715 1.5810001
-0.24512742 -0.015012129 1.5868667
-0.58569908 -0.0045285719 1.5850002
-0.57969999 -0.0075285719 1.5810001
-0.24363104 -0.0048312386 1.585
-0.59171337 0.0045400001 1.5890001
-0.58569908 0.0045285714 1.5850002
-0.24232189 0.0035184128 1.5836668
-0.23735106 0.0057430482 1.5874001
-0.59171337 0.015133334 1.5890001
-0.58495808 0.015072382 1.5830001
-0.24242 0.015057143 1.5810001
-0.23616627 0.015760137 1.5867145
-0.65224671 0.028753335 1.5890001
-0.6449827 0.028148001 1.5890001
-0.59171337 0.025726669 1.5890001
-0.58572286 0.025597146 1.581
-0.23522954 0.025404416 1.5860909
-0.66359669 0.037076667 1.5890001
-0.65527338 0.034806669 1.589
-0.64422607 0.034498271 1.5875454
-0.63621837 0.035211839 1.5878572
-0.58572286 0.033125713 1.5810001
-0.23265968 0.034750793 1.5863334
-0.67170382 0.046048574 1.589
-0.66335243 0.045222856 1.5830002
-0.65498573 0.045171428 1.5810002
-0.64555359 0.044771705 1.5821428
-0.63659471 0.045732241 1.5855715
-0.59171337 0.049940001 1.5890001
-0.23303121 0.045802858 1.5854446
-0.22750445 0.045904446 1.5890001
-0.67192006 0.052966669 1.5890001
-0.66419178 0.055854928 1.5850002
-0.65498573 0.05571143 1.5810002
-0.64595145 0.055711433 1.5810002
-0.63701147 0.055852383 1.5850002
-0.59171337 0.054480001 1.5890001
-0.24242 0.05571143 1.5810001
-0.23512077 0.055591431 1.5853637
-0.22851335 0.057506669 1.5890001
-0.66473174 0.065451674 1.589
-0.65412533 0.064315513 1.5810002
-0.64595151 0.064745717 1.5810002
-0.63647813 0.064852379 1.5836668
-0.59171337 0.062046669 1.5890001
-0.24242 0.064745717 1.581
-0.23567747 0.064962856 1.5863333
-0.22851335 0.065073334 1.5890001
-0.6744954 0.078229144 1.5858002
-0.66475868 0.076034293 1.5842001
-0.65558803 0.074683435 1.5810002
-0.64565027 0.07498458 1.5810002
-0.63637525 0.074909277 1.5836669
-0.59474003 0.074153334 1.5890001
-0.24302229 0.076189145 1.5810001
-0.23605648 0.07450176 1.5865386
-0.22851335 0.074153334 1.5890001
-0.69159335 0.086259998 1.5890001
-0.68640476 0.085395254 1.589
-0.67614025 0.08507923 1.5824547
-0.66402 0.085825711 1.5810002
-0.65498573 0.082814291 1.581
-0.64595145 0.085825719 1.5810002
-0.63612467 0.085113883 1.5838572
-0.62652004 0.08928667 1.5890001
-0.26048857 0.088837147 1.5810001
-0.25489494 0.088986993 1.5836668
-0.24453904 0.086046673 1.585
-0.23484181 0.084333949 1.589
-0.22851335 0.086260006 1.5890001
-0.69340932 0.096550666 1.5890001
-0.68647557 0.095257469 1.5876669
-0.67497069 0.095133774 1.5810002
-0.66582692 0.094257712 1.5810001
-0.64294004 0.094859995 1.581
-0.63454115 0.094956003 1.5826
-0.62652004 0.095340006 1.5890001
-0.59626192 0.095107622 1.585
-0.26048857 0.091848575 1.5810001
-0.25475013 0.094963282 1.5827779
-0.24511696 0.094890311 1.5860909
-0.23456667 0.092313334 1.5890001
-0.69512445 0.10341112 1.5890001
-0.68613541 0.10555772 1.5834001
-0.67606574 0.10444183 1.5810002
-0.63295716 0.10306571 1.5836669
-0.62500668 0.10442001 1.589
-0.61895335 0.10442001 1.5890001
-0.59626144 0.10504144 1.5870001
-0.25346196 0.1048981 1.5810002
-0.24625431 0.10424477 1.5863334
-0.69374573 0.11486667 1.5870001
-0.68514407 0.11539333 1.5818002
-0.67832428 0.11518715 1.5810001
-0.63106 0.11198667 1.5890001
-0.62474108 0.11523402 1.5861429
-0.61668336 0.11652666 1.589
-0.60987335 0.11652667 1.5890001
-0.59475625 0.11622572 1.585
-0.25145429 0.11443429 1.5810001
-0.24591759 0.11522719 1.5871538
-0.69112283 0.12497429 1.581
-0.68510002 0.12346858 1.5810002
-0.67907715 0.12196286 1.5810001
-0.62463182 0.12487023 1.5831819
-0.61621886 0.12584457 1.5882
-0.60987335 0.12712 1.5890001
-0.59174573 0.12497429 1.5810001
-0.24556668 0.12535372 1.5858001
-0.69112283 0.13400857 1.581
-0.68547642 0.13438499 1.5810002
-0.62487149 0.13400857 1.5810002
-0.61639744 0.13445936 1.5863334
-0.60911667 0.13544333 1.5890001
-0.59374195 0.13446572 1.5863334
-0.58873433 0.13551429 1.5810001
-0.25296003 0.13702001 1.5810001
-0.24717893 0.13406272 1.5867144
-0.69228858 0.14327906 1.5836668
-0.68570226 0.14394626 1.5810002
-0.62459767 0.14413792 1.5810002
-0.61586058 0.14432301 1.5832859
-0.60753608 0.14598 1.5877693
-0.59425181 0.14591938 1.585
-0.58873433 0.14454858 1.5810001
-0.25489113 0.14479621 1.5836668
-0.24970001 0.14528 1.5890001
-0.68710756 0.15308096 1.581
-0.61403036 0.15448628 1.5810001
-0.60659462 0.155802 1.585923
-0.59425467 0.15534763 1.5836668
-0.58873433 0.15358287 1.5810001
-0.26048857 0.15207715 1.5810001
-0.25517595 0.15552288 1.5854446
-0.24970001 0.15738668 1.5890001
-0.61282575 0.16111143 1.5810001
-0.6052081 0.16450939 1.5847334
-0.59355259 0.16472515 1.5810001
-0.25403097 0.16282095 1.5830002
-0.24848934 0.16555867 1.5890001
-0.60288936 0.17324324 1.5818002
-0.59551001 0.17466287 1.5810002
-0.25145429 0.17165144 1.5810001
-0.24692689 0.1747451 1.5863334
-0.60078001 0.18369715 1.5810001
-0.59626287 0.18369713 1.5810001
-0.24471429 0.18494053 1.5861431
-0.24453652 0.19472986 1.585
-0.60078001 0.20778859 1.5810001
-0.5947572 0.20568058 1.5810002
-0.58873433 0.20929429 1.5810001
-0.25145429 0.20929429 1.5810001
-0.24463874 0.2043746 1.5856667
-0.23759334 0.2043 1.5890001
-0.6610086 0.21832858 1.5810001
-0.65498573 0.21832858 1.581
-0.64896286 0.21832858 1.5810001
-0.61884862 0.21832858 1.5810001
-0.60228574 0.21531717 1.5810002
-0.59475714 0.21531714 1.5810002
-0.58873433 0.21230572 1.5810001
-0.25440741 0.21596786 1.5830002
-0.24619736 0.21359695 1.5881112
-0.67004287 0.22134002 1.5810001
-0.66317779 0.2239178 1.585
-0.65507221 0.22424777 1.5832857
-0.64745712 0.22435145 1.5810002
-0.62530172 0.22521184 1.5810002
-0.61621362 0.22472787 1.5810002
-0.60469496 0.22495373 1.5810002
-0.5947572 0.22435147 1.5810002
-0.26169315 0.22495373 1.5810001
-0.25560859 0.22536223 1.5881112
-0.66132671 0.23154001 1.5890001
-0.65516442 0.23409429 1.5858001
-0.64745718 0.23338574 1.5810002
-0.62426913 0.23489144 1.5810002
-0.61583716 0.23489143 1.5810002
-0.60529715 0.23489146 1.581
-0.59596169 0.23760171 1.5810001
-0.26239771 0.23441701 1.5821429
-0.25756931 0.23396134 1.5890001
-0.62411863 0.24317287 1.5810001
-0.61583716 0.24505499 1.5810002
-0.6051603 0.24515766 1.5810002
-0.59626287 0.24543144 1.5810002
-0.29060286 0.24844287 1.5810001
-0.2845507 0.24774115 1.5842001
-0.2756747 0.24761568 1.5867144
-0.26456362 0.24340133 1.5874002
-0.25878 0.24062 1.5890001
-0.61282575 0.25296003 1.5810001
-0.60479522 0.25446573 1.5810002
-0.5947572 0.25446573 1.5810002
-0.5872286 0.25446573 1.5810002
-0.29524547 0.25520909 1.5839093
-0.28645235 0.25488856 1.589
-0.27996668 0.25272667 1.5890001
-0.60379148 0.26952288 1.5810001
-0.59475714 0.26350001 1.581
-0.2937558 0.26449925 1.5834001
-0.28710923 0.26593566 1.5878572
-0.60328954 0.27604762 1.5810002
-0.59174573 0.27403998 1.5810001
-0.29135573 0.27479285 1.5810001
-0.28534797 0.27545917 1.5868182
-0.27936137 0.2763347 1.5890001
-0.61361957 0.28530383 1.5850002
-0.60783583 0.28352734 1.5863334
-0.59626287 0.28458002 1.5810002
-0.30264857 0.28608572 1.5810001
-0.29447469 0.28630084 1.5810002
-0.2858583 0.2858617 1.5881112
-0.27694002 0.28602001 1.589
-0.61515146 0.29623428 1.5870001
-0.60079336 0.29358667 1.5890001
-0.59475714 0.29512 1.5810001
-0.3035602 0.29572135 1.5826002
-0.29531103 0.29531515 1.5836666
-0.28602001 0.2951 1.589
-0.27694002 0.2951 1.589
-0.63842285 0.30264857 1.5810001
-0.61285549 0.30446267 1.5842001
-0.60803366 0.30658498 1.5858002
-0.59475714 0.30566001 1.581
-0.30581468 0.30520934 1.5818002
-0.29512 0.30566001 1.5810002
-0.28602001 0.30418003 1.589
-0.27794892 0.30367553 1.5890001
-0.60488236 0.3133297 1.5850002
-0.59389675 0.31512451 1.5810002
-0.38194954 0.31569812 1.581
-0.31318858 0.31469432 1.5810002
-0.30566001 0.31469429 1.5810002
-0.29525691 0.31442052 1.5810002
-0.28565621 0.31437528 1.5870003
-0.27996668 0.31477335 1.5890001
-0.60078001 0.32372859 1.581
-0.59513366 0.32335216 1.5810002
-0.38169861 0.32749289 1.5810001
-0.3764286 0.32975143 1.5810001
-0.30525032 0.32552147 1.5817275
-0.29430926 0.32442352 1.5810001
-0.28545257 0.32498762 1.5842
-0.27794892 0.32587111 1.5890001
-0.38245142 0.3357743 1.5810002
-0.37578326 0.33534411 1.5810002
-0.30478558 0.33493793 1.5830001
-0.29483941 0.335686 1.5831821
-0.28564167 0.33482501 1.589
-0.27875602 0.33444667 1.5890001
-0.38352698 0.34523878 1.5810002
-0.3752993 0.34518498 1.5810002
-0.31268668 0.34581241 1.581
-0.30520934 0.34437773 1.5818002
-0.29524383 0.34495524 1.5816668
-0.28589875 0.34489593 1.5883335
-0.27895778 0.34403113 1.5890001
-0.26786 0.34050003 1.5890001
-0.58572286 0.35986573 1.5810001
-0.38395718 0.3552117 1.5810002
-0.3759267 0.35585049 1.5810002
-0.36287716 0.35986573 1.5810001
-0.31168288 0.35835999 1.5810001
-0.30566001 0.35534862 1.5810002
-0.29512 0.35534859 1.581
-0.28550416 0.35575038 1.5846366
-0.27780479 0.35606572 1.589
-0.59171337 0.36320001 1.5890001
-0.58510154 0.36602384 1.5842001
-0.39299145 0.3658886 1.581
-0.38546288 0.36588863 1.5810002
-0.37492287 0.36588857 1.5810002
-0.3689 0.3673943 1.5810001
-0.31168288 0.3673943 1.5810001
-0.30566001 0.36588857 1.5810002
-0.29512 0.36588863 1.5810002
-0.2851162 0.36507335 1.5840001
-0.27583945 0.36498851 1.589
-0.26634666 0.36622667 1.5890001
-0.58346432 0.37567574 1.5810001
-0.39299145 0.37492287 1.581
-0.38546288 0.37492284 1.5810002
-0.37534443 0.37534612 1.5827779
-0.36814713 0.37567571 1.5810001
-0.31318858 0.37492287 1.5810002
-0.30517524 0.37618887 1.5863334
-0.29493493 0.3766109 1.5881112
-0.28574488 0.37571937 1.589
-0.27807504 0.37417167 1.589
-0.59171337 0.38590002 1.5890001
-0.58471912 0.38596475 1.5810002
-0.57969999 0.38696858 1.5810001
-0.39399526 0.38646671 1.5810002
-0.3865962 0.38509306 1.5856667
-0.37661093 0.38568583 1.5881112
-0.36558744 0.38455945 1.5810002
-0.35886189 0.38646671 1.5810002
-0.32071716 0.38998002 1.5810001
-0.31334129 0.386024 1.5843334
-0.30418003 0.38590002 1.589
-0.2951 0.38590002 1.589
-0.28602001 0.38590002 1.589
-0.27528912 0.38617519 1.589
-0.26634666 0.38287336 1.5890001
-0.58534646 0.39562643 1.5810002
-0.57969999 0.39600289 1.581
-0.39418572 0.3959972 1.5834001
-0.38590002 0.39498001 1.589
-0.3753067 0.39498004 1.5890001
-0.36530855 0.39549145 1.585
-0.35685426 0.39675573 1.5810002
-0.32071716 0.39299145 1.5810001
-0.31372622 0.39549145 1.5850002
-0.30472288 0.39571351 1.5875454
-0.2951 0.39498001 1.589
-0.28688478 0.39454767 1.589
-0.27501395 0.39497998 1.589
-0.58566004 0.40632999 1.5890001
-0.57427949 0.40503716 1.5810001
-0.40202573 0.4065429 1.5810001
-0.39535296 0.4046832 1.5839093
-0.38590002 0.40254664 1.5890001
-0.37480223 0.40305114 1.589
-0.36616212 0.40425849 1.5874001
-0.35534859 0.40503716 1.5810002
-0.34782001 0.40503716 1.581
-0.33878574 0.4080486 1.5810001
-0.32975143 0.4080486 1.5810001
-0.31288743 0.40563947 1.5810001
-0.30450618 0.40450367 1.5834616
-0.29547834 0.40368167 1.589
-0.28753334 0.4025467 1.5890001
-0.27694002 0.40103334 1.5890001
-0.58263338 0.4116267 1.5890001
-0.57685518 0.41506603 1.589
-0.56765431 0.41407144 1.581
-0.40202573 0.41557717 1.5810001
-0.39534205 0.41455358 1.5861428
-0.37206382 0.4140048 1.589
-0.36622667 0.41465336 1.589
-0.35534859 0.41407141 1.5810002
-0.34394816 0.41407147 1.5810002
-0.33620453 0.41493183 1.5810002
-0.32899857 0.41482431 1.5810001
-0.31318858 0.41407147 1.5810002
-0.30453333 0.41409084 1.5830001
-0.29694933 0.41458869 1.5881112
-0.58263338 0.42827335 1.5890001
