# .PCD v0.7 - Point Cloud Data file format
VERSION 0.7
FIELDS x y z
SIZE 4 4 4
TYPE F F F
COUNT 1 1 1
WIDTH 123
HEIGHT 1
VIEWPOINT 0 0 0 1 0 0 0
POINTS 123
DATA ascii
0.80713499 0.26625001 -1.6746
0.80768251 0.27403498 -1.672725
0.81059998 0.28777999 -1.67075
0.79995 0.29212001 -1.6704
0.80392998 0.29144335 -1.6732668
0.80757499 0.26539499 -1.6691999
0.80690205 0.27841201 -1.6646401
0.81510204 0.27724001 -1.6677401
0.82494998 0.275475 -1.663
0.80976999 0.28815499 -1.66295
0.81668007 0.28705126 -1.6625375
0.80808002 0.29962 -1.6643
0.80709994 0.30695 -1.6644
0.81222403 0.306532 -1.66266
0.80635995 0.31395501 -1.6634001
0.815 0.31234667 -1.6613333
0.80747998 0.32465833 -1.6617167
0.80738002 0.33048001 -1.6636
0.81034499 0.33105499 -1.66225
0.81059998 0.34039 -1.6608
0.82827502 0.27511251 -1.65635
0.83587199 0.27461401 -1.6562999
0.84135997 0.27424499 -1.6508501
0.81734002 0.28321999 -1.6581
0.82447702 0.28481999 -1.6556617
0.83192003 0.28198335 -1.6541667
0.84292501 0.28053498 -1.6523499
0.81515998 0.29183 -1.6591001
0.8261866 0.29574445 -1.6585445
0.83312672 0.29326665 -1.6542667
0.81389004 0.30700374 -1.6565
0.82516295 0.30421644 -1.655286
0.83223003 0.30603999 -1.6524667
0.80848432 0.31527001 -1.6549001
0.81499118 0.31590444 -1.6564556
0.82397252 0.31487 -1.6551502
0.83219999 0.31623 -1.6525
0.80825007 0.32505 -1.6534667
0.81302911 0.32498363 -1.6549364
0.82104999 0.32455999 -1.6506
0.80937004 0.33580002 -1.6554
0.81383103 0.33472002 -1.65494
0.80571997 0.34517801 -1.6525799
0.81440306 0.34596699 -1.65299
0.82361001 0.34022 -1.6518
0.80681801 0.35167998 -1.6569401
0.8143881 0.35468 -1.65178
0.83341002 0.27994001 -1.6488
0.84828001 0.27656999 -1.6497
0.82280999 0.2832 -1.6489
0.83875 0.28413001 -1.6447999
0.84669673 0.28933999 -1.6449001
0.83845496 0.29457 -1.6454999
0.8446629 0.29306287 -1.6426142
0.81660664 0.30694002 -1.6464
0.82767498 0.30628499 -1.6468
0.83512747 0.3052825 -1.6449124
0.8451243 0.30629146 -1.6444144
0.85148335 0.30243668 -1.6423334
0.81347251 0.31806251 -1.64665
0.82665998 0.31433377 -1.6466374
0.83602005 0.31404999 -1.6462749
0.84375 0.3168 -1.6433375
0.80941999 0.32431999 -1.6494
0.81406462 0.32551616 -1.6451539
0.82457 0.32473335 -1.6448555
0.83517253 0.32377002 -1.6447833
0.84464997 0.32493201 -1.6421601
0.81410152 0.33660695 -1.644908
0.82606423 0.33613002 -1.644925
0.8339029 0.33456001 -1.6442931
0.84282398 0.33547997 -1.64188
0.80621499 0.341685 -1.6466
0.81606907 0.34618601 -1.64578
0.82387251 0.34341624 -1.6446
0.83494329 0.34430334 -1.6412333
0.79809999 0.35299334 -1.6447001
0.80565155 0.3541072 -1.6456714
0.81536609 0.35442388 -1.6447848
0.8240633 0.3545292 -1.643875
0.83372605 0.35301599 -1.6427001
0.85168004 0.28887334 -1.6390667
0.86662745 0.28825 -1.6339
0.84779 0.29679999 -1.6393
0.85177004 0.29391497 -1.6373501
0.86557996 0.29444999 -1.6356
0.87111998 0.29179999 -1.6301
0.83348 0.30851001 -1.6377
0.84938002 0.30581 -1.6372499
0.85380334 0.30612335 -1.6373667
0.86450499 0.30733499 -1.6315
0.81553751 0.31830502 -1.6347001
0.82238001 0.31972 -1.6353
0.84726 0.31217998 -1.6356
0.85628003 0.31755403 -1.63482
0.81621599 0.32658401 -1.637
0.82100999 0.32582498 -1.6379
0.83750999 0.32525334 -1.6371667
0.84324503 0.32629001 -1.63835
0.85281998 0.32391 -1.6348751
0.81674999 0.331635 -1.6387501
0.82075 0.33032 -1.6366
0.83477855 0.3354843 -1.6381001
0.84541571 0.33550146 -1.6352859
0.85389161 0.33315167 -1.6322335
0.80484998 0.34897 -1.6364
0.81893671 0.34285998 -1.6370667
0.82475734 0.34527269 -1.6365865
0.83520854 0.34513155 -1.6361462
0.84465998 0.34436002 -1.6336923
0.85548496 0.34185499 -1.631
0.80434 0.35038 -1.6352
0.86574668 0.31588835 -1.6288666
0.85614502 0.32320249 -1.6268749
0.8628267 0.32198 -1.6289667
0.86053002 0.33864 -1.6279
0.87111998 0.33888999 -1.6209
0.836945 0.34363002 -1.6273501
0.84354502 0.34323502 -1.6293
0.85507458 0.34499279 -1.6269274
0.86340296 0.34231427 -1.6231573
0.87958002 0.3348 -1.6174001
0.88801998 0.33713999 -1.6126
