# .PCD v0.7 - Point Cloud Data file format
VERSION 0.7
FIELDS x y z
SIZE 4 4 4
TYPE F F F
COUNT 1 1 1
WIDTH 1497
HEIGHT 1
VIEWPOINT 0 0 0 1 0 0 0
POINTS 1497
DATA ascii
0.22152857 0.64161241 1.723
-0.032819048 0.65802193 1.723
-0.024614288 0.65474004 1.7229998
-0.018050477 0.65474004 1.723
-0.0016409525 0.65474004 1.723
0.0044540139 0.65380234 1.7229998
0.012580636 0.65255207 1.723
0.24122001 0.65802193 1.723
0.28224382 0.65474004 1.723
-0.033522315 0.6650545 1.7229998
-0.024614288 0.66294473 1.7229999
-0.01723 0.66376525 1.723
-0.0016409525 0.66458577 1.723
0.0016409524 0.66294479 1.723
0.24122001 0.66130382 1.723
0.27732095 0.66294479 1.723
0.28060287 0.66130382 1.723
-0.034049761 0.67402118 1.7229998
-0.0029537142 0.67508781 1.7229999
-0.12041524 0.21608762 1.7320001
-0.11381715 0.21828699 1.732
-0.10721905 0.21938668 1.7320001
-0.10227048 0.22433525 1.7320001
-0.094022863 0.22818415 1.732
-0.090723813 0.2342324 1.7320001
-0.084538095 0.23629427 1.7320002
-0.08082667 0.24248001 1.7320001
-0.075053334 0.24330476 1.7320001
-0.064331427 0.24536668 1.7320002
-0.055259049 0.24825335 1.7320001
-0.052234922 0.25347683 1.732
-0.045361906 0.25815049 1.7320001
-0.042337779 0.26337397 1.732
-0.036619432 0.26623315 1.7320001
0.26392382 0.26887238 1.7320001
-0.032990478 0.27217144 1.7320001
-0.023918096 0.27299619 1.7320001
-0.018144762 0.27711999 1.7320001
-0.0016495239 0.27711999 1.7320001
0.0049485718 0.27711999 1.7320002
0.014185905 0.27744991 1.7320001
0.02144381 0.27876952 1.7320001
0.24742858 0.27876952 1.7320001
0.2561475 0.27641305 1.7320002
0.26557335 0.2754705 1.7320002
-0.02144381 0.28536764 1.7320001
-0.015258095 0.28577998 1.7320002
-0.0038488891 0.28536764 1.732
0.0049485718 0.28442505 1.7320002
0.014845714 0.28536761 1.7320002
0.024742858 0.28536761 1.7320002
0.035739683 0.28756699 1.732
0.24577907 0.28495526 1.7320002
0.25567618 0.28536764 1.7320002
0.26557335 0.28536761 1.7320002
0.2754705 0.28631023 1.7320002
-0.012371429 0.29444003 1.7320001
-0.0065980949 0.29526475 1.7320002
0.0057733338 0.29444 1.7320001
0.014020953 0.29279047 1.7320001
0.024742858 0.29361525 1.7320002
0.034640003 0.29526478 1.7320002
0.044124767 0.29567716 1.7320002
0.052784763 0.29856381 1.7320001
0.18969524 0.29691428 1.7320001
0.19629332 0.29691431 1.7320001
0.20784 0.29526478 1.7320001
0.21278858 0.29691428 1.7320001
0.22466514 0.2965844 1.7320001
0.23698162 0.29636446 1.7320002
0.24577907 0.29526478 1.7320002
0.25457653 0.2941651 1.7320002
0.26689297 0.29394513 1.7320001
0.27505812 0.29485238 1.7320002
-0.0060482542 0.30296254 1.732
0.0049485718 0.30186287 1.7320001
0.014845714 0.30516192 1.7320001
0.021443808 0.30516192 1.732
0.034640003 0.30186287 1.732
0.044537146 0.30318251 1.7320001
0.054021906 0.3055743 1.7320002
0.06350667 0.3076362 1.7320001
0.070929527 0.30681145 1.7320001
0.18722096 0.3076362 1.7320001
0.19629332 0.3055743 1.7320002
0.20660286 0.30557433 1.7320002
0.21476802 0.30648154 1.7320001
0.22598475 0.30516189 1.7320002
0.23546953 0.30474955 1.7320002
0.24412954 0.30351239 1.7320001
0.27641305 0.30469063 1.7320002
0.28371811 0.30351239 1.7320001
0.018144762 0.31340954 1.7320001
0.02144381 0.31340954 1.7320001
0.056083813 0.31505904 1.7320002
0.064743809 0.31464669 1.7320002
0.074228577 0.31505904 1.7320002
0.082476199 0.31505904 1.7320002
0.1171162 0.31670856 1.7320001
0.12412667 0.31547144 1.7320002
0.13361144 0.31505907 1.7320002
0.14445117 0.31553033 1.7320002
0.15293443 0.31600165 1.7320002
0.16440254 0.31725839 1.7320002
0.17649905 0.31835809 1.732
0.18680859 0.31547147 1.7320002
0.19629335 0.31505904 1.7320002
0.2061905 0.31505907 1.7320002
0.21608764 0.31505907 1.7320002
0.22598478 0.31505907 1.7320002
0.23258287 0.31176001 1.7320001
0.2754705 0.31505904 1.732
0.054434288 0.32495621 1.7320001
0.065651044 0.32429639 1.7320001
0.074228577 0.32495618 1.7320002
0.08412572 0.32495618 1.7320002
0.092923187 0.32605588 1.7320002
0.10227048 0.32825524 1.7320001
0.11491683 0.32605585 1.7320002
0.12371429 0.32495618 1.7320002
0.13361144 0.32495621 1.7320002
0.14350858 0.32495618 1.7320002
0.15340573 0.32495621 1.7320002
0.16495238 0.32495621 1.7320002
0.17608668 0.3245438 1.7320002
0.18557143 0.32248193 1.7320001
0.19629334 0.32165715 1.732
0.20619047 0.32165715 1.732
0.21608764 0.32165715 1.732
0.27711999 0.32165715 1.7320001
0.28206858 0.32330668 1.7320001
0.074228577 0.33320382 1.7320002
0.085775241 0.33155429 1.7320001
0.094435245 0.33444098 1.7320002
0.10392001 0.33485332 1.7320002
0.11381715 0.33485335 1.7320002
0.12371429 0.33485338 1.7320002
0.13361144 0.33485338 1.7320002
0.14309619 0.33444095 1.7320002
0.15142629 0.33419353 1.7320001
0.1646225 0.33221412 1.7320001
0.17320001 0.33155429 1.7320001
0.27657017 0.33375368 1.732
0.097321905 0.34145144 1.7320001
0.10433238 0.34433812 1.7320002
0.11381716 0.34475046 1.7320002
0.12173486 0.34409067 1.7320001
0.13526097 0.34145144 1.7320001
0.14020953 0.34145144 1.7320001
0.1517562 0.34310097 1.7320001
0.097321905 0.35134858 1.7320001
0.10392001 0.35134855 1.732
0.11381716 0.35134855 1.732
0.24907811 0.51795053 1.7320001
0.25237715 0.51960003 1.7320001
0.24412954 0.54929143 1.7320001
0.23588191 0.55753911 1.7320001
0.24577907 0.55588955 1.7320002
0.25402668 0.55588955 1.7320002
0.22928382 0.56743622 1.7320001
0.23588191 0.56578666 1.7320002
0.24412954 0.56248766 1.7320001
0.22598478 0.57568383 1.7320002
0.23588192 0.57815814 1.7320001
0.22598478 0.58558095 1.7320002
0.23588191 0.585581 1.7320002
0.24412954 0.58393145 1.7320001
0.21476801 0.59613788 1.7320001
0.22268572 0.59547812 1.7320001
0.23753144 0.59382856 1.7320001
0.20948952 0.60867429 1.7320001
0.21388827 0.60317594 1.732
0.23588191 0.60867429 1.7320001
0.24467938 0.60592514 1.7320002
0.25237715 0.60702479 1.7320001
0.20666179 0.61621505 1.7320002
0.2276343 0.61857146 1.7320001
0.23258287 0.61527246 1.732
0.24577905 0.61362284 1.7320002
0.15670477 0.62846857 1.7320001
0.16550224 0.62736893 1.732
0.17649905 0.62681907 1.7320001
0.19629334 0.62516952 1.732
0.20619048 0.62187052 1.7320001
0.22928382 0.62681907 1.7320001
0.23258287 0.62516952 1.732
-0.026392382 0.63176763 1.7320001
-0.0027492065 0.63506669 1.732
0.0042887619 0.63704616 1.7320001
0.015670476 0.637541 1.7320001
0.024742857 0.63506669 1.732
0.033815239 0.6358915 1.7320001
0.044537142 0.63506669 1.732
0.052784763 0.63506669 1.7320001
0.074228577 0.63506669 1.732
0.084785528 0.63638633 1.7320001
0.093198098 0.6358915 1.7320001
0.10227048 0.63506669 1.7320001
0.15340573 0.63176763 1.7320001
0.1649524 0.63176763 1.7320001
0.1797981 0.63176763 1.7320001
0.22845906 0.63424194 1.7320001
0.23541065 0.63600928 1.7320002
-0.0016495239 0.6416648 1.7320001
0.0044772788 0.6449638 1.7320002
0.013196191 0.6416648 1.7320001
0.28866667 0.64826286 1.7320001
0.29196572 0.64826286 1.7320001
-0.032990478 0.65651047 1.7320001
0.0082476195 0.65156192 1.7320001
0.28866667 0.65486097 1.7320001
0.29196572 0.65321147 1.7320001
-0.042887624 0.66475815 1.7320002
-0.037939049 0.66475815 1.732
0.27711999 0.66310859 1.7320001
-0.041238096 0.6713562 1.7320001
-0.13098952 0.21389429 1.7410001
-0.12601525 0.21389429 1.7410001
-0.12104096 0.22218478 1.7410001
-0.11440858 0.22301382 1.7410001
-0.1066708 0.22605366 1.7410001
-0.10114381 0.23047525 1.7410001
-0.096501149 0.23445468 1.7409999
-0.093563952 0.24326625 1.7410001
-0.085226104 0.24572973 1.7409999
-0.07295619 0.2470562 1.7410001
-0.091195241 0.25037238 1.7410001
-0.083733812 0.25120142 1.7410001
-0.075277522 0.25169888 1.7409999
-0.06466572 0.25463605 1.7410001
-0.056927938 0.25589934 1.7410001
-0.053390671 0.26231065 1.7409999
-0.046979368 0.26584795 1.7410001
-0.044768572 0.27192768 1.7410001
-0.035649046 0.27607286 1.7410001
-0.026529524 0.2769019 1.7410001
-0.033161908 0.28021809 1.7410001
-0.025285952 0.28311977 1.7410001
-0.023213334 0.29348287 1.7410001
-0.017133651 0.29569367 1.7410001
-0.0016580954 0.29348287 1.7410001
0.0043110475 0.29348287 1.7409999
0.016580952 0.29679906 1.7410001
0.26363716 0.29679906 1.7410001
-0.022660635 0.30122066 1.7410001
-0.01533738 0.30384597 1.7410001
-0.0038688888 0.30343145 1.7410001
0.0049742865 0.30390522 1.7410001
0.015475556 0.30232605 1.7410001
0.025818912 0.30295771 1.7410001
0.034820002 0.30674765 1.7410001
0.044768572 0.30674765 1.7410001
0.25416231 0.30437896 1.7410001
0.26363716 0.30343145 1.7410001
0.27137494 0.30564225 1.7410001
-0.011606667 0.31006381 1.7410001
-0.0055269841 0.31393269 1.7410001
0.0066323816 0.31338 1.7410001
0.013264763 0.31338 1.7410001
0.026529523 0.31338 1.7410001
0.034820005 0.31338 1.7410001
0.044768572 0.31338 1.7410001
0.051400956 0.31503808 1.7410001
0.23600225 0.31559077 1.7410001
0.24326625 0.31243253 1.7410001
0.25037238 0.31006381 1.7410001
0.26695335 0.31006381 1.7410001
0.27192762 0.31338 1.7410001
-0.0049742861 0.32167047 1.7410001
0.018239047 0.32001239 1.7410001
0.023213334 0.32001239 1.7410001
0.036478095 0.32498667 1.7410001
0.044467099 0.32483596 1.7409999
0.054348685 0.32590783 1.7410001
0.062675998 0.32598153 1.7409999
0.18487763 0.3291319 1.7410001
0.19233906 0.32830286 1.7410001
0.20062953 0.32664478 1.7410001
0.21721049 0.32664478 1.7410001
0.22494824 0.32443401 1.7410001
0.23213334 0.32332858 1.7410001
0.27424899 0.32399184 1.7409999
0.28021809 0.32830286 1.7410001
0.036478098 0.33659336 1.7410001
0.044768572 0.33659336 1.7410001
0.05471715 0.33659336 1.7410001
0.064665712 0.33659336 1.7410001
0.074614286 0.33990952 1.7410001
0.084089115 0.33754084 1.7410001
0.091195241 0.33990952 1.7410001
0.14757048 0.33990952 1.7410001
0.15669 0.33742237 1.7410001
0.16415143 0.33858305 1.7409999
0.17457375 0.33754084 1.7410001
0.18363406 0.33617884 1.7410001
0.19068097 0.33327717 1.7410001
0.2769019 0.33990952 1.7410001
0.28021809 0.33990952 1.7410001
0.036478095 0.34654188 1.7410001
0.044768572 0.34654191 1.7410001
0.053611752 0.34543648 1.7410001
0.065328956 0.34455219 1.7409999
0.075088032 0.34559441 1.7410001
0.08456286 0.34654188 1.7410001
0.094096906 0.3469564 1.7410001
0.10114381 0.34985811 1.7410001
0.12684429 0.34737095 1.7410001
0.13364248 0.34654191 1.7409999
0.1442543 0.3459892 1.7410001
0.15552935 0.34786835 1.7409999
0.16415143 0.34654188 1.7410001
0.17315254 0.34606814 1.7410001
0.18471181 0.34587866 1.7409999
0.19178636 0.34764731 1.7410001
0.037030794 0.35427967 1.7410001
0.043939523 0.35400334 1.7410001
0.084977388 0.35649049 1.7410001
0.094096906 0.35690504 1.7410001
0.10446 0.3581486 1.7410001
0.11440857 0.35814857 1.7410001
0.12236743 0.35582727 1.7409999
0.1548661 0.35450077 1.7409999
0.16415145 0.35483241 1.7410001
0.17520539 0.35538509 1.7410001
0.18073238 0.35649049 1.7410001
0.094511427 0.36312285 1.7410001
0.10114381 0.36312288 1.7410001
0.11275049 0.36312288 1.7410001
0.2470562 0.51898384 1.7410001
0.25368857 0.51787847 1.7410001
0.2470562 0.52395809 1.7410001
0.25451761 0.52478713 1.7410001
0.26032096 0.52395809 1.7410001
0.23710763 0.54882956 1.7410001
0.24374001 0.54800051 1.7410001
0.25368857 0.54882956 1.7410001
0.23511791 0.55479866 1.7409999
0.24042381 0.55546194 1.7410001
0.25368857 0.55214572 1.7410001
0.22550094 0.56706858 1.7410001
0.23213336 0.56375241 1.7410001
0.24374001 0.56651586 1.7410001
0.25203049 0.56706858 1.7410001
0.22550096 0.57204288 1.7410001
0.23489684 0.57646447 1.7410001
0.24374001 0.57535911 1.7410001
0.25120145 0.57453001 1.7410001
0.22052668 0.5853076 1.7410001
0.2453981 0.58199143 1.7410001
0.22052668 0.59194005 1.7410001
0.23710763 0.60520482 1.7410001
0.24042381 0.60520482 1.7410001
0.20560381 0.61515337 1.7410001
0.23710763 0.61681145 1.7410001
0.24042381 0.61515331 1.7410001
0.25479397 0.61736417 1.7410001
0.16746762 0.62841815 1.7410001
0.18404858 0.62841815 1.7410001
0.19399714 0.62731272 1.7410001
0.20062953 0.62178576 1.7410001
0.23710763 0.62510192 1.7410001
0.24374001 0.62510192 1.7410001
0.25120145 0.62427288 1.7410001
-0.024871429 0.63173431 1.7410001
-0.014922857 0.63173431 1.7410001
-0.0049742856 0.63339239 1.7410001
0.0033161906 0.63505048 1.7410001
0.016580952 0.63670862 1.7410001
0.024871429 0.63505048 1.7410001
0.034820002 0.63505048 1.7410001
0.044768572 0.63505048 1.7410001
0.053059049 0.63505048 1.7410001
0.061349526 0.63505048 1.7410001
0.11440858 0.63505048 1.7410001
0.12435714 0.63505048 1.7410001
0.13098952 0.63505048 1.7410001
0.1409381 0.63505048 1.7410001
0.16415143 0.63173431 1.7410001
0.23710763 0.63339239 1.7410001
0.24415453 0.63463598 1.7410001
0.25120142 0.63587958 1.7410001
0.2459508 0.64389366 1.7410001
0.25203049 0.64499903 1.7410001
0.29182476 0.64831525 1.7410001
-0.043110475 0.65826386 1.7410001
-0.038136192 0.65826386 1.7410001
0.2470562 0.65328956 1.7410001
0.25147781 0.65273684 1.7410001
0.28519237 0.65826386 1.7410001
-0.04559762 0.66240907 1.7410001
-0.038136192 0.66158003 1.7410001
0.2470562 0.66655433 1.7410001
0.2769019 0.66489619 1.7410001
0.2470562 0.67152858 1.7410001
-0.13333334 0.21833335 1.7500001
-0.12666667 0.21500002 1.7500001
-0.14239524 0.22783239 1.7590001
-0.13500001 0.22500001 1.7500001
-0.12595238 0.22547619 1.7500001
-0.11500001 0.22833334 1.7500001
-0.14239524 0.23620857 1.7590002
-0.1356943 0.23620857 1.7589999
-0.12557334 0.23607619 1.7579999
-0.11512952 0.23527241 1.7520001
-0.10541668 0.23541668 1.7500001
-0.14239524 0.24290954 1.7590001
-0.13569428 0.24290954 1.7590002
-0.12516424 0.24530275 1.7589999
-0.11559144 0.24626 1.7589999
-0.10512383 0.24528193 1.7520001
-0.098333336 0.24666667 1.7500001
-0.11307858 0.25547382 1.7590001
-0.10530572 0.25573048 1.755
-0.09541668 0.25541666 1.7500001
-0.085666671 0.257 1.7500002
-0.07416667 0.25749999 1.7500001
-0.10458273 0.26588425 1.7589999
-0.095164768 0.26545814 1.753
-0.085000001 0.26500002 1.7500001
-0.074999996 0.26500002 1.7500001
-0.065000005 0.26500002 1.7500001
-0.056666672 0.26666668 1.7500001
-0.10218953 0.27306381 1.7590001
-0.095069766 0.27599549 1.7589999
-0.085390486 0.27625906 1.7579999
-0.075173333 0.27563429 1.7540001
-0.064999998 0.27500001 1.7500001
-0.055000007 0.27500001 1.7500001
-0.045000002 0.27833334 1.7500001
-0.084479868 0.28598711 1.7589999
-0.07538572 0.28646567 1.7589999
-0.06514857 0.28565717 1.7540001
-0.055000007 0.285 1.7500001
-0.045000002 0.285 1.7500001
-0.035476189 0.28595242 1.7500001
-0.083203495 0.29428351 1.7590002
-0.074966908 0.29609832 1.7589999
-0.065263808 0.29618192 1.757
-0.055000007 0.29500005 1.7500001
-0.045000002 0.29500005 1.7500001
-0.034999996 0.29500005 1.7500001
-0.028333334 0.29500002 1.7500001
-0.14407048 0.30740622 1.7590001
-0.07538572 0.3032181 1.7590001
-0.06533429 0.30656859 1.7589999
-0.055282861 0.30656859 1.7589999
-0.045077145 0.30552861 1.753
-0.035041902 0.30535242 1.7520001
-0.026111111 0.30611113 1.7500001
-0.0016666667 0.30833334 1.7500001
-0.064217463 0.3171784 1.7589999
-0.055282861 0.31662002 1.7589999
-0.045231432 0.31662002 1.7589999
-0.035125718 0.31608 1.756
-0.025000002 0.31500003 1.7500001
-0.015416667 0.31541669 1.7500001
-0.0038888892 0.31388888 1.7500001
0.0016666666 0.31500003 1.7500001
0.24666667 0.31833336 1.7500001
0.25541666 0.31541669 1.7500001
0.26475155 0.31562135 1.7511251
-0.05360762 0.3249962 1.7590001
-0.045231432 0.3249962 1.7589999
-0.035152856 0.3247205 1.7575001
-0.024601549 0.3247923 1.7511251
-0.015000001 0.32500002 1.7500001
-0.0055555557 0.32500002 1.7500001
0.0050042863 0.32361194 1.7515001
0.015000001 0.32500002 1.7500001
0.025476191 0.32595238 1.7500001
0.031666666 0.32500002 1.7500001
0.048333336 0.32833335 1.7500001
0.19833334 0.32833335 1.7500001
0.20666668 0.32833335 1.7500001
0.21333334 0.32833335 1.7500001
0.22500001 0.32833335 1.7500001
0.23750001 0.32583335 1.7500001
0.24458334 0.32458335 1.7500001
0.25490341 0.32452273 1.7525715
0.26567572 0.32416621 1.7545
0.2727778 0.32722223 1.7500001
-0.041880954 0.33337238 1.7590001
-0.035179999 0.33295357 1.7589999
-0.025054645 0.33397299 1.7533751
-0.015000001 0.33500001 1.7500001
-0.0050028577 0.33445749 1.753
0.0050257146 0.33337238 1.7589999
0.014571564 0.33383989 1.7564286
0.025476191 0.33404762 1.7500001
0.031666666 0.33500001 1.7500001
0.19611113 0.3361111 1.7500001
0.20458336 0.33458334 1.7500001
0.21541668 0.33458334 1.7500001
0.22500001 0.33404762 1.7500001
0.23473656 0.33479869 1.7511251
0.24619865 0.33359864 1.7551429
0.25656846 0.33357799 1.757875
0.26636288 0.33337238 1.7589999
0.27438548 0.33462119 1.7567501
-0.025112653 0.34317282 1.7577143
-0.015077144 0.34509906 1.7589999
-0.0045336061 0.34362558 1.7551429
0.0050257146 0.34342384 1.7589999
0.015077144 0.34342381 1.7589999
0.025072003 0.34438765 1.7554001
0.031666666 0.34500003 1.7500001
0.058333337 0.34833336 1.7500001
0.061666667 0.34833336 1.7500001
0.17833334 0.34833336 1.7500001
0.18583333 0.34666669 1.7500001
0.19541669 0.34500003 1.7500001
0.20566538 0.34443372 1.755625
0.21562707 0.34438112 1.7589999
0.22615716 0.34384263 1.7589999
0.23617418 0.34443372 1.755625
0.24626 0.34342384 1.7589999
0.2551946 0.342307 1.7589999
0.26678169 0.34300503 1.7589999
0.27563763 0.34423456 1.75675
0.28166667 0.34666669 1.7500001
-0.021778097 0.35347524 1.7590002
-0.015077144 0.35347527 1.7589999
-0.0059829936 0.35299665 1.7589999
0.0070360005 0.3528052 1.7590001
0.015077144 0.35347527 1.7589999
0.024571566 0.35339418 1.7538573
0.032499999 0.35583335 1.7500001
0.046666667 0.35833335 1.7500001
0.05541667 0.35541669 1.7500001
0.065000005 0.35500002 1.7500001
0.074583329 0.35541669 1.7500001
0.081666671 0.35833335 1.7500001
0.12833335 0.35666668 1.7500001
0.13500001 0.35366669 1.7500002
0.14611112 0.35444447 1.7500001
0.15166667 0.35833335 1.7500001
0.17500001 0.35500002 1.7500001
0.185 0.35555556 1.7500001
0.1954762 0.35595241 1.7500001
0.20608205 0.35321373 1.755625
0.21610571 0.35347527 1.7589999
0.22615716 0.35347527 1.7589999
0.23620857 0.35389408 1.7589999
0.24626 0.35347527 1.7589999
0.25296095 0.35012478 1.7590001
0.26803812 0.35347524 1.7589999
0.27546084 0.35321373 1.755625
0.28166667 0.35500002 1.7500001
-0.021778096 0.36017621 1.7590001
-0.015077144 0.36017621 1.7590002
-0.0055841268 0.3629683 1.7589999
0.0083761904 0.36017621 1.7590001
0.015077144 0.36240986 1.7589999
0.025128573 0.36352667 1.7589999
0.035114288 0.36457908 1.756
0.045000002 0.36333334 1.7500001
0.055185717 0.36458194 1.756
0.06533429 0.36520192 1.7589999
0.075187139 0.36426911 1.7545
0.085000008 0.36666667 1.7500001
0.095000006 0.36833334 1.7500001
0.10566667 0.36700001 1.7500002
0.11583334 0.36750001 1.7500001
0.12509428 0.36526576 1.7512858
0.1356943 0.36352667 1.7589999
0.14523156 0.363713 1.757875
0.155 0.36500001 1.7500001
0.16500001 0.36500001 1.7500001
0.17500001 0.36500001 1.7500001
0.185 0.36500001 1.7500001
0.19522668 0.36541525 1.7520001
0.2060543 0.36352667 1.7589999
0.21610571 0.36352667 1.7589999
0.22615716 0.36352667 1.7589999
0.23509176 0.36240983 1.7589999
0.24290954 0.36017621 1.7590001
0.2685965 0.36129305 1.7590002
0.27641428 0.36352667 1.7589999
0.036296826 0.37246129 1.7589999
0.045231432 0.3735781 1.7589999
0.055282861 0.3735781 1.7589999
0.06533429 0.3735781 1.7589999
0.07538572 0.3735781 1.7589999
0.085291438 0.37461045 1.756
0.095000014 0.375 1.7500001
0.10509001 0.37365475 1.7515001
0.11469769 0.37459618 1.7525715
0.12612151 0.37453538 1.7589999
0.1356943 0.3735781 1.7589999
0.14574572 0.3735781 1.7589999
0.15579714 0.37525335 1.7589999
0.16500001 0.375 1.7500001
0.17478585 0.37459618 1.7525715
0.18482548 0.37506333 1.7522501
0.19567144 0.37461618 1.756
0.2060543 0.3735781 1.7589999
0.21476552 0.37223792 1.7590001
0.22615714 0.37022766 1.7590002
0.27808952 0.3735781 1.7589999
0.038530476 0.38027906 1.7590001
0.044114605 0.38139591 1.7590002
0.055952955 0.38161927 1.7590001
0.06533429 0.38404834 1.7589999
0.07538572 0.38362956 1.7589999
0.085336208 0.38319147 1.757
0.095000014 0.38500002 1.7500001
0.10498897 0.38350764 1.7554001
0.11539999 0.38408637 1.756
0.12564287 0.38362953 1.7589999
0.1356943 0.38362956 1.7589999
0.14574572 0.38362956 1.7589999
0.15579714 0.38362956 1.7589999
0.16500001 0.38500002 1.7500001
0.17570382 0.38430446 1.757
0.18643008 0.38458681 1.7589999
0.19600286 0.38362953 1.7589999
0.20557566 0.38267228 1.7589999
0.27769935 0.38564858 1.7530001
0.28166667 0.38833335 1.7500001
0.068684764 0.39200574 1.7590001
0.075804524 0.39326218 1.7589999
0.085336193 0.39323145 1.757
0.095000006 0.39333335 1.7500001
0.10589346 0.39384586 1.757875
0.11601023 0.3940998 1.7589999
0.12564287 0.39368099 1.7589999
0.13569428 0.39368099 1.7589999
0.14574572 0.39368099 1.7589999
0.15579714 0.39368099 1.7589999
0.16536124 0.39491579 1.7538573
0.17631881 0.39409983 1.7589999
0.18553263 0.39326218 1.7589999
0.19600286 0.39368099 1.7589999
0.20270382 0.39200574 1.7590001
0.27612799 0.39327809 1.7572
0.28239095 0.39434907 1.7545002
0.078736193 0.40038192 1.7590001
0.085855953 0.40331358 1.7589999
0.095488578 0.40373239 1.7589999
0.10554001 0.40373239 1.7589999
0.11559142 0.40373236 1.7589999
0.12564287 0.40373236 1.7589999
0.1356943 0.40205714 1.7589999
0.14641581 0.4017221 1.7590001
0.15621595 0.40331364 1.7589999
0.16584858 0.4041512 1.7589999
0.1759 0.40373242 1.7589999
0.18499418 0.40325373 1.7589999
0.28311524 0.40038192 1.7590001
0.058633335 0.41713431 1.7590001
0.06533429 0.41713431 1.7590001
0.088787623 0.4121086 1.7590001
0.095967218 0.41282654 1.7589999
0.10554001 0.41378382 1.7589999
0.11559144 0.41378382 1.7589999
0.12468559 0.41378382 1.7589999
0.13904476 0.41378382 1.7590001
0.14239524 0.41378382 1.7590001
0.16752382 0.41043335 1.7590001
0.1759 0.41043338 1.7590002
0.18260096 0.41043335 1.7590001
0.095488578 0.42383528 1.7590001
0.10595882 0.42425409 1.7589999
0.11654871 0.42335662 1.7589999
0.097722225 0.43165302 1.7590002
0.10637762 0.43137383 1.7590001
0.10554001 0.50759715 1.7590001
0.23955905 0.51764858 1.7590001
0.24620633 0.51706779 1.755625
0.25558287 0.51505846 1.7540001
0.26166669 0.51666671 1.7500001
0.23788381 0.52434963 1.7589999
0.24333334 0.52500004 1.7500001
0.26166669 0.52166671 1.7500001
0.23788381 0.53440094 1.7589999
0.24499999 0.53500003 1.7500001
0.25490096 0.53483379 1.7525715
0.26485237 0.53554243 1.7545
0.27306381 0.53775144 1.7590001
0.23629849 0.54456198 1.7572
0.245 0.54458338 1.7500001
0.25590226 0.54505259 1.7540909
0.26546881 0.54451138 1.7579999
0.27306381 0.54277718 1.7590001
0.1356943 0.55115336 1.7590001
0.14574572 0.55785429 1.7590001
0.22950763 0.55785429 1.7590001
0.23337637 0.55363512 1.7545
0.2650227 0.55517387 1.7590001
0.1273181 0.56455523 1.7589999
0.13401906 0.56455523 1.7589999
0.14351207 0.5623216 1.7590002
0.15579715 0.56790572 1.7590001
0.22703107 0.56473321 1.7554001
0.23166667 0.56166667 1.7500001
0.1273181 0.57125622 1.7590001
0.1624981 0.57460672 1.7590001
0.22166668 0.57666671 1.7500001
0.15803079 0.58689177 1.7590002
0.16584858 0.58666843 1.7590001
0.17590001 0.58800858 1.7590001
0.21833786 0.5872522 1.7567501
0.22166668 0.58166671 1.7500001
0.1273181 0.59470958 1.7590001
0.13611311 0.59470952 1.7589999
0.14742096 0.59806001 1.7590001
0.15579714 0.59470952 1.7589999
0.16584857 0.59470958 1.7589999
0.17590001 0.59470958 1.7589999
0.18511382 0.59722239 1.7590001
0.20856716 0.5955472 1.7590001
0.21477048 0.59454882 1.7536001
0.087670796 0.60699463 1.7590002
0.094650954 0.60727382 1.7590001
0.10554001 0.60811144 1.7590001
0.11810429 0.60559857 1.7590001
0.12675969 0.60587782 1.7589999
0.13401906 0.60476094 1.7589999
0.15621597 0.60476094 1.7589999
0.1658486 0.60476094 1.7589999
0.17548119 0.6043421 1.7589999
0.18678905 0.60308576 1.7590001
0.19600286 0.60476094 1.7589999
0.20593525 0.60441524 1.7579999
0.21166666 0.60500002 1.7500001
0.077395998 0.61548245 1.7590001
0.085855953 0.61523122 1.7589999
0.095009938 0.61481237 1.7589999
0.10419981 0.61481237 1.7590001
0.11654871 0.61529106 1.7589999
0.12564288 0.61481243 1.7589999
0.13569428 0.61481243 1.7589999
0.14574572 0.61481243 1.7589999
0.15579714 0.61481243 1.7589999
0.16584858 0.61481243 1.7589999
0.17422478 0.61481237 1.7589999
0.18595144 0.61816287 1.7590001
0.19600286 0.61481243 1.7589999
0.20540297 0.61453187 1.7563
0.21166667 0.61166668 1.7500001
0.25833336 0.61666667 1.7500001
0.26301238 0.61816287 1.7590001
0.058633335 0.6282143 1.7590001
0.077060953 0.62486386 1.7589999
0.085437149 0.6248638 1.7589999
0.095488578 0.62486386 1.7589999
0.10554001 0.62486386 1.7589999
0.11559142 0.62486386 1.7589999
0.12564285 0.62486386 1.7589999
0.13569428 0.62486386 1.7589999
0.14574572 0.6248638 1.7589999
0.15579714 0.6248638 1.7589999
0.1656943 0.6254946 1.7573636
0.17567499 0.62573117 1.7567501
0.18633612 0.62623972 1.7563
0.19542478 0.62520242 1.7565455
0.20166667 0.62166667 1.7500001
0.25722221 0.62722224 1.7500001
0.26211524 0.62272668 1.7530001
-0.063994095 0.63558531 1.7590001
-0.058633335 0.63659048 1.7590001
-0.033104572 0.63628596 1.7554001
-0.025088573 0.63215715 1.756
-0.015712952 0.63227564 1.7554001
-0.0039003175 0.6360603 1.756
0.0061282539 0.63828832 1.7560002
0.01503143 0.63831085 1.7530001
0.028479049 0.63826573 1.7590001
0.036855239 0.63826573 1.7590001
0.046069048 0.6374281 1.7590001
0.057233144 0.63626897 1.7572
0.065669663 0.63686126 1.7551429
0.07589981 0.63594919 1.7554001
0.085292853 0.63549763 1.756
0.095488578 0.63491523 1.7589999
0.10574486 0.63553667 1.7573638
0.11546191 0.63418961 1.757
0.12557334 0.63455242 1.7579999
0.13580641 0.63523984 1.7565455
0.14577915 0.63494301 1.7557274
0.15461165 0.63347512 1.7540001
0.16417176 0.63163275 1.7530001
0.25666666 0.63499999 1.7500001
0.26385 0.63575286 1.7590001
0.27306381 0.63826573 1.7590001
0.0083333338 0.64166671 1.7500001
0.011666667 0.64166671 1.7500001
0.095488578 0.64161623 1.7590002
0.10218953 0.64161623 1.7590001
0.25833336 0.64500004 1.7500001
0.26589328 0.64530337 1.7580999
0.27430013 0.64544767 1.7577143
0.29333335 0.64833337 1.7500001
0.25722224 0.65500003 1.7500001
0.26661345 0.65501583 1.757875
0.27594858 0.65501207 1.756
0.28654605 0.65534246 1.7554001
0.29166669 0.65833336 1.7500001
-0.048333336 0.66166669 1.7500001
0.25582606 0.66546232 1.755625
0.26636285 0.66305929 1.7590001
0.2766563 0.66506088 1.757875
0.28214952 0.66279525 1.7530001
0.25602302 0.67567205 1.7549092
0.26703295 0.67579108 1.7590001
0.27368692 0.67252594 1.7522501
0.25583333 0.6825 1.7500001
0.26636288 0.68517238 1.7589999
0.27599549 0.6847536 1.7589999
0.26301238 0.69187337 1.7590001
-0.14649144 0.23573333 1.7680001
-0.15322667 0.2441524 1.7680001
-0.14705271 0.24415241 1.768
-0.13638858 0.24752001 1.7680001
-0.14312382 0.25088763 1.7680001
-0.13638858 0.25088763 1.7680001
-0.12628572 0.25201017 1.7680001
-0.11842794 0.25650033 1.7680001
-0.11449905 0.2643581 1.7680001
-0.10944762 0.26772574 1.7680001
-0.11281524 0.27277714 1.7680001
-0.10675353 0.2751345 1.768
-0.10271239 0.28288001 1.7680001
-0.096458234 0.28552598 1.7679999
-0.089241907 0.28793144 1.7680001
-0.094854601 0.29354411 1.768
-0.088399999 0.29550859 1.7680001
-0.14312382 0.30813715 1.7680001
-0.085313022 0.30364698 1.768
-0.076332703 0.30589208 1.768
-0.14649144 0.31655622 1.7680001
-0.082506672 0.31150478 1.7680001
-0.075771429 0.31487241 1.7679999
-0.067352384 0.31487238 1.7680001
-0.072403811 0.32160762 1.7680001
-0.066149659 0.32593745 1.7679999
-0.058933336 0.32665905 1.7680001
-0.053320635 0.33283302 1.7680001
-0.045462858 0.33459702 1.7679999
-0.035360001 0.33844572 1.7680001
-0.034518097 0.34265527 1.7680001
-0.028624764 0.34854859 1.7680001
0.25762287 0.34854859 1.7680001
0.26211303 0.34742603 1.7680001
-0.026940951 0.35528383 1.768
-0.0016838096 0.35696763 1.7680001
0.0025257145 0.35612571 1.7680001
0.25627583 0.35595733 1.768
0.2626743 0.35528383 1.768
-0.024583619 0.36471316 1.768
-0.015154287 0.36707047 1.768
-0.0039288891 0.3665092 1.7680001
0.0046304762 0.36580765 1.7679999
0.015154286 0.36763176 1.7680001
0.23741715 0.3687543 1.7680001
0.24463348 0.36634883 1.7679999
0.25425524 0.36538669 1.7679999
0.26393715 0.36580765 1.7679999
0.27109334 0.3687543 1.7680001
-0.021889525 0.37548953 1.7680001
-0.014480762 0.37346897 1.768
-0.0050514289 0.37452731 1.7679999
0.0055325171 0.37452736 1.7679999
0.015154285 0.3754895 1.7679999
0.025257144 0.37548956 1.7679999
0.033114921 0.37773463 1.7680001
0.21721144 0.37717336 1.7680001
0.22394669 0.37717333 1.768
0.23348826 0.37548956 1.768
0.24415238 0.37506858 1.7679999
0.25425524 0.37380576 1.768
0.2643581 0.37548953 1.7679999
0.27277717 0.37548956 1.768
0.016838096 0.38559237 1.768
0.025257142 0.3855924 1.7679999
0.034939047 0.38601333 1.7679999
0.046024129 0.38671494 1.768
0.05472381 0.38811809 1.7680001
0.065668575 0.38222477 1.7680001
0.20710857 0.38896 1.7680001
0.21480601 0.3860735 1.7679999
0.22192609 0.38491887 1.768
0.2666032 0.3833473 1.7680001
0.2748819 0.38517147 1.7679999
0.28119621 0.38896 1.7680001
0.017680001 0.39653715 1.7680001
0.025257144 0.39569524 1.7679999
0.035359997 0.39569524 1.7679999
0.045462858 0.39569527 1.7679999
0.055565715 0.39569524 1.7679999
0.0647064 0.39617631 1.7679999
0.072403811 0.39906287 1.7680001
0.19027048 0.39906287 1.7680001
0.20626666 0.39653715 1.7680001
0.21384384 0.39569524 1.7679999
0.22142094 0.39569524 1.7680001
0.23741715 0.39569524 1.7680001
0.26772574 0.39737904 1.7680001
0.27361906 0.39822096 1.7680001
0.017680001 0.40495622 1.7680001
0.025257142 0.40579814 1.7679999
0.035359997 0.40579811 1.7679999
0.045462858 0.40579814 1.7679999
0.055565715 0.40579817 1.7679999
0.065668575 0.40579814 1.7679999
0.075350478 0.40621909 1.7679999
0.082506672 0.40916574 1.7680001
0.13638857 0.40916574 1.7680001
0.14564952 0.40832382 1.7680001
0.15322667 0.40916574 1.7680001
0.19405906 0.40621907 1.7679999
0.20261842 0.4046756 1.768
0.21384382 0.40483594 1.7679999
0.22226286 0.4024305 1.7680001
0.23573333 0.4024305 1.7680001
0.26772574 0.40916574 1.7680001
0.27446097 0.40579814 1.7679999
0.28119621 0.40579811 1.7680001
0.018521905 0.41590095 1.7680001
0.025257142 0.41590098 1.7679999
0.035359997 0.41590095 1.7679999
0.045462862 0.41590095 1.7679999
0.055144768 0.41547999 1.7679999
0.065668575 0.41493875 1.7679999
0.075771429 0.41590095 1.7679999
0.084912114 0.41638204 1.7679999
0.094293341 0.41926858 1.7680001
0.12965333 0.41590095 1.7680001
0.13596763 0.41590095 1.7679999
0.1469124 0.41590095 1.7679999
0.15659428 0.41590098 1.7679999
0.16467658 0.41657448 1.768
0.17343239 0.41758478 1.768
0.18401635 0.41686314 1.7679999
0.19321716 0.41547999 1.7679999
0.20037334 0.41421717 1.7680001
0.2144051 0.41646221 1.768
0.22226286 0.41758478 1.7680001
0.23068191 0.41590098 1.7680001
0.26772574 0.41421717 1.7680001
0.27446097 0.41590098 1.7679999
0.28119621 0.41253334 1.7680001
0.025678094 0.42558289 1.7679999
0.034878913 0.42504168 1.7679999
0.045462862 0.42432007 1.768
0.056046806 0.42504168 1.7679999
0.065668575 0.42600381 1.7679999
0.075771429 0.42600381 1.7679999
0.085874289 0.42600381 1.7679999
0.095977142 0.42600384 1.768
0.10271239 0.42263621 1.7680001
0.11281524 0.42768764 1.7680001
0.12628573 0.42600381 1.7679999
0.13638857 0.42600381 1.7679999
0.14649144 0.42600381 1.7679999
0.15659431 0.42600381 1.7679999
0.16501334 0.42600384 1.768
0.17343239 0.42600381 1.7679999
0.18353526 0.42600384 1.7679999
0.19363809 0.42600384 1.7679999
0.20332 0.42642474 1.7679999
0.2104762 0.42768764 1.7680001
0.2643581 0.42937145 1.7680001
0.27446094 0.42263618 1.7680001
0.028624764 0.43610668 1.7680001
0.03487891 0.43706888 1.7679999
0.058933336 0.43610668 1.7680001
0.065668568 0.43610668 1.7679999
0.075771429 0.43610668 1.7679999
0.085874289 0.43610668 1.7679999
0.094854601 0.43722925 1.768
0.10540648 0.43812728 1.768
0.11618287 0.43610668 1.7679999
0.12628572 0.43610668 1.7679999
0.13638858 0.43610668 1.7679999
0.14649145 0.43610668 1.7679999
0.15659428 0.43610668 1.7679999
0.16501334 0.43610668 1.768
0.17343239 0.43610668 1.7679999
0.18353525 0.43610668 1.7679999
0.19363809 0.43610668 1.7679999
0.20332 0.43568572 1.7679999
0.26520002 0.43526477 1.7680001
0.27109334 0.43273905 1.7680001
0.031992383 0.44284192 1.7680001
0.066510476 0.44452572 1.7680001
0.076192386 0.44578859 1.7679999
0.086435556 0.44677079 1.768
0.0963981 0.44663048 1.7679999
0.10608 0.44620949 1.7679999
0.11618286 0.44620955 1.7679999
0.12628573 0.44620955 1.7679999
0.13638858 0.44620955 1.7679999
0.14649145 0.44620955 1.7679999
0.15659431 0.44620958 1.7679999
0.16501334 0.44620952 1.768
0.17343239 0.44620955 1.7679999
0.18353526 0.44620958 1.7679999
0.19321716 0.44578856 1.7679999
0.20172039 0.44553599 1.768
0.25762287 0.44789335 1.7680001
0.26435813 0.44620955 1.7679999
0.27277714 0.44620955 1.7680001
0.0892419 0.45631242 1.7680001
0.09597715 0.45631239 1.7679999
0.10608 0.45631239 1.7679999
0.1157619 0.45631242 1.7679999
0.12516318 0.45687369 1.768
0.13723049 0.45715433 1.7680001
0.1469124 0.45673338 1.7679999
0.15659429 0.45631239 1.7679999
0.16501334 0.45631242 1.768
0.17343239 0.45631245 1.7679999
0.18353526 0.45631239 1.7679999
0.19027048 0.45462859 1.7680001
0.20037334 0.45294479 1.7680001
0.25678095 0.4554705 1.7680001
0.2643581 0.45631245 1.7679999
0.27277714 0.45968002 1.7680001
0.28456381 0.45799622 1.768
0.29242161 0.45855746 1.7680001
0.088400006 0.46557337 1.7680001
0.095556192 0.46683618 1.7679999
0.10608 0.4664152 1.7679999
0.11562159 0.46753776 1.768
0.12586476 0.46683621 1.7679999
0.13638857 0.46737742 1.7679999
0.1460705 0.46599427 1.7679999
0.15659428 0.46388954 1.7680001
0.16501334 0.46304762 1.7680001
0.17343238 0.46473145 1.7680001
0.18185145 0.46304762 1.7680001
0.25762287 0.46641526 1.7680001
0.26435807 0.46641526 1.7679999
0.27446097 0.46641526 1.7679999
0.28414285 0.46599424 1.7679999
0.29508764 0.46641523 1.7679999
0.30140191 0.46809906 1.7680001
0.085874289 0.47764063 1.7680001
0.09597715 0.47651809 1.7679999
0.10608 0.47651815 1.7679999
0.11618286 0.47699922 1.7679999
0.12628572 0.47651809 1.7679999
0.13414349 0.47427306 1.7680001
0.14514439 0.47584456 1.768
0.26520002 0.47567621 1.7680001
0.27446097 0.47651815 1.7679999
0.28203812 0.47567621 1.7680001
0.29466668 0.47315049 1.7680001
0.30140191 0.47315049 1.7680001
0.077455238 0.4899886 1.7680001
0.085200764 0.48864156 1.768
0.095135242 0.48577905 1.7680001
0.10355429 0.48577905 1.7680001
0.11281524 0.48493716 1.7680001
0.12881143 0.48577908 1.7680001
0.1397562 0.4899886 1.7680001
0.14593017 0.48718223 1.768
0.15659429 0.48662099 1.7680001
0.25762287 0.48830479 1.7680001
0.26477903 0.48704192 1.7679999
0.27311391 0.48527393 1.768
0.069036193 0.49672383 1.7680001
0.075771429 0.4967238 1.7680001
0.085874297 0.49537677 1.768
0.09597715 0.49504003 1.768
0.10383493 0.49560127 1.7680001
0.11618286 0.49537677 1.768
0.12712762 0.49588192 1.7680001
0.13554667 0.49588192 1.7680001
0.14649144 0.49504003 1.768
0.15659429 0.49504 1.7680001
0.25492877 0.49537677 1.768
0.2643581 0.49504003 1.768
0.27277714 0.49504 1.7680001
0.069036193 0.50345904 1.7680001
0.075771429 0.50387996 1.7679999
0.085874282 0.5034591 1.7679999
0.095977142 0.5034591 1.7679999
0.10511784 0.50394011 1.7679999
0.11752991 0.50211203 1.768
0.12628572 0.50345904 1.7679999
0.13638858 0.5034591 1.7679999
0.14649144 0.5034591 1.7679999
0.15563212 0.50394017 1.7679999
0.24583621 0.50345904 1.7680001
0.25425524 0.5034591 1.7679999
0.2643581 0.5034591 1.7679999
0.27277717 0.50345904 1.768
0.075771429 0.5141232 1.768
0.085874289 0.51356196 1.7679999
0.09597715 0.51356196 1.7679999
0.10559892 0.5145241 1.7679999
0.11752991 0.5142355 1.768
0.12628572 0.5135619 1.7679999
0.13638858 0.51356196 1.7679999
0.14649144 0.51356196 1.7679999
0.15524724 0.51490903 1.768
0.16445208 0.5146845 1.7680001
0.23741715 0.51524574 1.7680001
0.24373144 0.51314104 1.7679999
0.25425524 0.51154137 1.768
0.26477906 0.51314098 1.7679999
0.27244037 0.51288843 1.768
0.087558098 0.52366477 1.768
0.095977157 0.52366471 1.7679999
0.10608 0.52366471 1.7679999
0.11674413 0.52478725 1.768
0.12628572 0.52366471 1.7679999
0.13638858 0.52366471 1.7679999
0.14649145 0.52366471 1.7679999
0.15659428 0.52366471 1.7679999
0.16501334 0.52366477 1.768
0.17343237 0.52534854 1.768
0.18353523 0.52703238 1.7680001
0.23517208 0.52366477 1.7680001
0.26772574 0.52029717 1.7680001
0.057249524 0.53376764 1.7680001
0.065668575 0.53376764 1.7680001
0.072403811 0.53376764 1.7680001
0.085874289 0.53376764 1.7680001
0.095977142 0.53328651 1.7679999
0.10608 0.53376764 1.7679999
0.11618286 0.53418863 1.7679999
0.12586476 0.53418857 1.7679999
0.13638857 0.53376758 1.7679999
0.14649144 0.53376758 1.7679999
0.15659431 0.53376758 1.7679999
0.16501334 0.53376764 1.768
0.17343239 0.53376764 1.7679999
0.18311429 0.53376764 1.7679999
0.19498515 0.53444117 1.768
0.21384382 0.53713524 1.7680001
0.22394668 0.53713524 1.7680001
0.23404951 0.53376764 1.7680001
0.087558098 0.54218674 1.7680001
0.09597715 0.54387051 1.768
0.10565905 0.54429144 1.7679999
0.11618286 0.54387051 1.7679999
0.12628573 0.54387051 1.7679999
0.13638857 0.54387051 1.7679999
0.14649144 0.54387051 1.7679999
0.15659428 0.54387051 1.7679999
0.16501334 0.54387051 1.768
0.17343238 0.54387051 1.7679999
0.18353526 0.54387051 1.7679999
0.19460027 0.54435158 1.7679999
0.20416191 0.54429144 1.7679999
0.21384382 0.54387051 1.7679999
0.22394668 0.54387051 1.7679999
0.23152381 0.54302859 1.7680001
0.047146671 0.55060571 1.7680001
0.075771429 0.55734098 1.7680001
0.087558098 0.55734098 1.7680001
0.09597715 0.55397338 1.7679999
0.10608 0.55397344 1.7679999
0.11618286 0.55397344 1.7679999
0.12628572 0.55397338 1.7679999
0.13638857 0.55397338 1.7679999
0.14649144 0.55397338 1.7679999
0.15659429 0.55397344 1.7679999
0.16501334 0.55397338 1.768
0.17343239 0.55397344 1.7679999
0.18353525 0.55397338 1.7679999
0.19363809 0.55397338 1.7679999
0.20374094 0.55397344 1.7679999
0.21384382 0.55397344 1.7679999
0.22394666 0.55439436 1.7679999
0.23068191 0.55397338 1.7680001
0.065668568 0.56407619 1.7679999
0.07689397 0.56463748 1.768
0.085874289 0.56407619 1.7679999
0.09597715 0.56407619 1.7679999
0.10608 0.56407619 1.7679999
0.11618287 0.56407619 1.7679999
0.12493868 0.56272912 1.768
0.13773564 0.56272912 1.768
0.14783849 0.56407619 1.768
0.15659431 0.56407619 1.7679999
0.16501334 0.56407619 1.768
0.17343239 0.56407619 1.7679999
0.18353526 0.56407619 1.7679999
0.19229105 0.56542325 1.768
0.2041619 0.56365526 1.7679999
0.21384382 0.56365526 1.7679999
0.22394669 0.56455725 1.7679999
0.065668568 0.57417911 1.7679999
0.075771421 0.57417911 1.7679999
0.085874289 0.57417905 1.7679999
0.095977157 0.57417905 1.7679999
0.10608 0.57417911 1.7679999
0.11618286 0.57417905 1.7679999
0.12493867 0.57552612 1.768
0.13686965 0.57514125 1.7679999
0.14649144 0.57417899 1.7679999
0.15659431 0.57460004 1.7679999
0.16535011 0.57350552 1.768
0.17343239 0.57417899 1.7679999
0.18353526 0.57459998 1.7679999
0.19027048 0.57417911 1.7680001
0.20374095 0.57754672 1.7680001
0.21384382 0.57417905 1.7680001
0.22226286 0.57502097 1.7680001
0.038727619 0.58764952 1.7680001
0.046425037 0.58476299 1.7679999
0.052198097 0.58596575 1.7680001
0.066149667 0.58331972 1.7679999
0.076192386 0.58428192 1.7679999
0.085874289 0.58428198 1.7679999
0.095977142 0.58428198 1.7679999
0.10608 0.58428186 1.7679999
0.11618286 0.58428192 1.7679999
0.12628572 0.58428192 1.7679999
0.13638858 0.58428198 1.7679999
0.14649144 0.58428186 1.7679999
0.15617335 0.58386099 1.7679999
0.16535011 0.58360839 1.768
0.17385334 0.58386093 1.7679999
0.18353526 0.58428192 1.7679999
0.1936381 0.58470285 1.7679999
0.21384382 0.58495545 1.768
0.22057906 0.58259809 1.7680001
0.038727619 0.59606862 1.7680001
0.045041908 0.59480572 1.7679999
0.054443177 0.59662986 1.7680001
0.069036193 0.59438479 1.7680001
0.077455238 0.59438479 1.768
0.085874289 0.59438485 1.7679999
0.09597715 0.59438479 1.7679999
0.10608 0.59438485 1.7679999
0.11618286 0.59438479 1.7679999
0.12580463 0.59438479 1.7679999
0.13554667 0.59270102 1.7680001
0.14649144 0.59438485 1.7679999
0.15322667 0.59101719 1.7680001
0.17680001 0.59101719 1.7680001
0.18555582 0.59371126 1.768
0.19363812 0.59438479 1.7679999
0.20374095 0.59438485 1.7679999
0.21216002 0.59101719 1.7680001
0.034237463 0.60673273 1.7680001
0.045462858 0.60448766 1.7679999
0.054218668 0.60583472 1.768
0.066510476 0.6070134 1.7680001
0.075771429 0.60448766 1.7679999
0.085453331 0.60406673 1.7679999
0.096398108 0.60406661 1.7679999
0.10608 0.60448766 1.7679999
0.11522069 0.60400659 1.7679999
0.12376001 0.60448766 1.7680001
0.1397562 0.60617149 1.7680001
0.14601035 0.6054498 1.7679999
0.15322667 0.60785526 1.7680001
0.18521905 0.60785526 1.7680001
0.1936381 0.60336512 1.7680001
0.20205715 0.60112 1.7680001
0.028624764 0.61459053 1.7680001
0.034397822 0.61459053 1.7679999
0.045462858 0.61459047 1.7679999
0.055565715 0.61459053 1.7679999
0.065668575 0.61459047 1.7679999
0.074648894 0.61346793 1.768
0.082506672 0.61290669 1.7680001
0.097660959 0.61795813 1.7680001
0.10675353 0.61459047 1.768
0.11281524 0.61459053 1.7680001
0.1397562 0.61122286 1.7680001
0.14649142 0.61122286 1.7680001
0.18353526 0.61459047 1.7679999
0.19027048 0.61627436 1.7680001
-0.063984767 0.628061 1.7680001
0.035921272 0.62525463 1.768
0.045462862 0.62469333 1.7679999
0.056527894 0.62517446 1.7679999
0.065668575 0.62469327 1.7679999
0.072403811 0.62469339 1.7680001
0.10944762 0.62132573 1.7680001
0.18269333 0.62385148 1.7680001
0.19027048 0.62132573 1.7680001
0.27109334 0.628061 1.7680001
-0.063423492 0.63255113 1.7680001
-0.054892194 0.63614327 1.768
-0.048830479 0.63647997 1.7680001
-0.036201905 0.63563812 1.7680001
-0.021889525 0.6314286 1.7680001
-0.011786667 0.6347962 1.7680001
-0.0058933333 0.63647997 1.7680001
0.0016838096 0.63816381 1.7680001
0.015154286 0.63732189 1.7680001
0.027502224 0.63704127 1.7680001
0.035841085 0.6357584 1.7679999
0.045041908 0.63437527 1.7679999
0.053881902 0.6347962 1.768
0.065668575 0.633834 1.7679999
0.072403811 0.6347962 1.7680001
0.09597715 0.63816381 1.7680001
0.26772574 0.6347962 1.7680001
0.27446094 0.63479626 1.7679999
0.0050514289 0.64153147 1.7680001
0.013470476 0.64153147 1.7680001
0.023573335 0.64153147 1.7680001
0.031992383 0.64153147 1.7680001
0.055565715 0.64153147 1.7680001
0.27446097 0.64153147 1.7680001
0.28456384 0.64489913 1.7679999
0.29129905 0.64489907 1.7680001
0.28456381 0.65247625 1.7680001
0.29129905 0.65163434 1.7680001
0.26772574 0.66847241 1.7680001
0.2663787 0.67453408 1.768
0.27277714 0.67352378 1.7680001
0.26772574 0.68194288 1.7680001
0.27782857 0.68194288 1.7680001
0.28119621 0.68194288 1.7680001
-0.15231429 0.24878001 1.7770001
-0.15062191 0.25216478 1.7770001
-0.14385238 0.25442126 1.7770001
-0.13285191 0.25639573 1.7770001
-0.12580033 0.25780603 1.7770001
-0.13200572 0.26231906 1.7770001
-0.12354381 0.26570383 1.7770002
-0.11677429 0.2690886 1.7770001
-0.12151296 0.27518114 1.7770001
-0.11474343 0.27721202 1.7770001
-0.14182153 0.28533545 1.7770001
-0.13539049 0.2851662 1.7770001
-0.12354382 0.28262764 1.7770001
-0.11271258 0.28398153 1.7770001
-0.10577382 0.28685859 1.7770001
-0.14046763 0.29616669 1.7770001
-0.10492763 0.2944743 1.7770001
-0.098722227 0.2984232 1.7770001
-0.14046763 0.30632097 1.7770001
-0.095337458 0.30519271 1.7770001
-0.087439686 0.30857748 1.7770001
-0.14046763 0.31309047 1.7770001
-0.086311422 0.31647524 1.7770002
-0.082926668 0.32324478 1.7770001
-0.076157145 0.32493716 1.7770001
-0.072772384 0.33170667 1.7770001
-0.066002861 0.33509144 1.7770001
-0.058105081 0.33565557 1.7770001
-0.062618099 0.3401686 1.7770001
-0.055848572 0.3401686 1.7770001
-0.045694284 0.34355333 1.7770001
-0.037232384 0.3469381 1.7770001
-0.034572925 0.35419115 1.7770002
-0.042309526 0.36724669 1.7770001
-0.035540003 0.36386192 1.7770002
-0.028770477 0.36724669 1.7770001
-0.042309526 0.37232381 1.7770001
-0.03554 0.37401617 1.7770002
-0.026352789 0.37449974 1.7770002
-0.018616192 0.37740096 1.7770001
0.23862572 0.37740096 1.7770001
-0.032155238 0.38078573 1.7770001
-0.025808811 0.38459358 1.7770002
-0.015231429 0.3841705 1.7770002
-0.0055606803 0.3841705 1.7770002
0.0046540475 0.38459361 1.7770002
0.011846667 0.38586289 1.7770001
0.22847144 0.38586289 1.7770001
0.23572449 0.38513756 1.7770002
0.24539523 0.38513756 1.7770002
0.25554955 0.38417047 1.7770002
0.26344731 0.38642702 1.7770001
-0.022000954 0.39094001 1.7770001
-0.01523143 0.39094004 1.7770001
-0.0062053972 0.39206827 1.7770001
0.0073336512 0.39206827 1.7770001
0.013200572 0.39500174 1.7770001
0.22711754 0.39364782 1.7770001
0.23481788 0.39390168 1.7770002
0.24539526 0.39384124 1.7770002
0.25498539 0.39376065 1.7770001
0.26528075 0.39390168 1.7770002
0.27247334 0.3926324 1.7770001
-0.011846667 0.40786383 1.7770001
-0.0059233336 0.40532526 1.7770001
0.012692858 0.40532526 1.7770001
0.20816286 0.40786383 1.7770001
0.22621495 0.40504315 1.7770001
0.23475744 0.40447906 1.7770002
0.24471828 0.4038021 1.7770001
0.25442126 0.40222254 1.7770001
0.26570383 0.40447903 1.7770002
-0.022000954 0.41632575 1.7770001
-0.014667302 0.41519749 1.7770001
-0.0060442174 0.41463333 1.7770002
0.014264354 0.41511688 1.7770002
0.20647049 0.41463339 1.7770001
0.21493238 0.41294098 1.7770001
0.22557023 0.41366625 1.7770002
0.23566407 0.41421026 1.7770002
0.24201049 0.41463336 1.7770001
0.26401144 0.41463339 1.7770001
-0.016359685 0.42253113 1.7770001
-0.006769524 0.42309529 1.7770001
0.01523143 0.42478767 1.7770002
0.19800858 0.42140287 1.7770001
0.2056243 0.42224905 1.7770001
0.21493238 0.42535177 1.7770001
0.22395843 0.42478764 1.7770001
0.26739621 0.42478764 1.7770001
0.27416572 0.42817241 1.7770001
0.017262287 0.43426496 1.7770001
0.023354858 0.43561888 1.7770001
0.037232384 0.43324953 1.7770001
0.045694288 0.43494189 1.7770002
0.054156188 0.43494192 1.7770001
0.21535547 0.43536502 1.7770002
0.22170192 0.4366343 1.7770001
0.25780603 0.43719843 1.7770001
0.26570383 0.43578812 1.7770001
0.27628121 0.43494195 1.7770002
0.018616192 0.44340384 1.7770001
0.025385715 0.44453207 1.7770001
0.036216952 0.44712704 1.7770001
0.045694288 0.44509622 1.7770002
0.055425476 0.44551933 1.7770002
0.064310476 0.44678858 1.7770001
0.084619045 0.44509619 1.7770001
0.093080953 0.44509619 1.7770001
0.20816286 0.44509622 1.7770001
0.21444884 0.44412914 1.7770002
0.25512645 0.44467312 1.7770002
0.26570383 0.44171146 1.7770001
0.27416572 0.44340384 1.7770001
0.028770477 0.4552505 1.7770001
0.034186099 0.45660439 1.7770001
0.04654048 0.45778903 1.7770001
0.055848572 0.45621756 1.7770002
0.066002853 0.45525047 1.7770002
0.075673603 0.45621753 1.7770002
0.084957525 0.45592743 1.7770001
0.12354381 0.45863524 1.7770001
0.13200572 0.45694286 1.7770001
0.14159589 0.45637873 1.7770001
0.19665468 0.45592743 1.7770001
0.20534223 0.45525047 1.7770001
0.21154763 0.45355812 1.7770001
0.25351867 0.4552505 1.7770001
0.27585807 0.45525053 1.7770002
0.28432 0.4552505 1.7770001
0.045694288 0.46202001 1.7770001
0.055848572 0.46286622 1.7770001
0.066425949 0.46540478 1.7770002
0.076157153 0.46540478 1.7770002
0.084280573 0.46540481 1.7770001
0.099850483 0.46540478 1.7770001
0.11677429 0.46709716 1.7770001
0.12015905 0.46540478 1.7770001
0.13256985 0.46427652 1.7770001
0.14046763 0.46540478 1.7770001
0.15400667 0.46878955 1.7770001
0.16416095 0.46878955 1.7770001
0.17431526 0.46878955 1.7770001
0.18531571 0.46794334 1.7770001
0.19420074 0.46498168 1.7770002
0.20139334 0.46371239 1.7770001
0.25554955 0.46371239 1.7770001
0.27924287 0.46202001 1.7770001
0.29278192 0.46878955 1.7770001
0.056332111 0.47459197 1.7770002
0.066969931 0.47555906 1.7770002
0.076157145 0.47555909 1.7770002
0.085344359 0.47604257 1.7770002
0.11677429 0.47725144 1.7770001
0.13708286 0.47894382 1.7770001
0.14046763 0.47725144 1.7770001
0.15400666 0.47555909 1.7770002
0.16416095 0.47555909 1.7770002
0.17431526 0.47598216 1.7770002
0.18446954 0.47555909 1.7770002
0.19236732 0.47330257 1.7770001
0.25893429 0.4738667 1.7770001
0.26457557 0.47781554 1.7770001
0.28939715 0.4738667 1.7770001
0.058387142 0.48655954 1.7770001
0.066002868 0.48571336 1.7770002
0.076157145 0.48571336 1.7770002
0.087665334 0.48571339 1.7770001
0.098158099 0.48571336 1.7770001
0.10662001 0.4890981 1.7770001
0.11338953 0.48740572 1.7770001
0.12286685 0.48774418 1.7770001
0.13539049 0.48571336 1.7770001
0.14182153 0.48571333 1.7770001
0.15303959 0.48522982 1.7770002
0.16416097 0.48571333 1.7770002
0.17431526 0.48571336 1.7770002
0.18446952 0.48571333 1.7770002
0.19259296 0.48571333 1.7770001
0.25780603 0.48571333 1.7770001
0.26457557 0.48345685 1.7770001
0.27755049 0.4890981 1.7770001
0.056815647 0.49538413 1.7770002
