# .PCD v0.7 - Point Cloud Data file format
VERSION 0.7
FIELDS x y z
SIZE 4 4 4
TYPE F F F
COUNT 1 1 1
WIDTH 1506
HEIGHT 1
VIEWPOINT 0 0 0 1 0 0 0
POINTS 1506
DATA ascii
-1.0565029 0.52732956 1.9360001
-1.0380648 0.52548575 1.9360001
-1.0620344 0.5347048 1.9360001
-1.0546591 0.5347048 1.9360001
-1.0454401 0.5347048 1.936
-1.0380648 0.5347048 1.9360001
-1.0712534 0.54576766 1.9360001
-1.0633514 0.54497749 1.936
-1.0546591 0.54392385 1.936
-1.0459009 0.54346287 1.936
-1.074941 0.5512991 1.9360002
-1.0638782 0.55445993 1.936
-1.0528153 0.55498672 1.9360002
-1.0472839 0.55683053 1.9360001
-1.07734 0.48767716 1.9470001
-1.0680686 0.48582286 1.9470001
-1.0550886 0.48767719 1.9470001
-1.0810486 0.4969486 1.9470001
-1.0761038 0.4926219 1.9470001
-1.0699229 0.49138573 1.9470001
-1.0545589 0.4950943 1.9470003
-1.0464352 0.4963305 1.9470001
-1.0810486 0.50622004 1.9470001
-1.0754857 0.50622004 1.9470001
-1.0662143 0.50668359 1.9470003
-1.0550885 0.50622004 1.9470003
-1.0458171 0.50622004 1.9470001
-1.0754857 0.51549149 1.9470001
-1.0662143 0.51549149 1.9470001
-1.0550886 0.51456434 1.9470001
-1.0458171 0.51549149 1.9470001
-1.07734 0.52290857 1.9470001
-1.0654726 0.52550459 1.9470001
-1.0550886 0.52476287 1.9470003
-1.0444927 0.52476287 1.9470003
-1.0365458 0.52847147 1.9470001
-1.0810486 0.53588861 1.9470001
-1.0754858 0.53588861 1.9470001
-1.0699229 0.53218001 1.9470001
-1.0550886 0.53218001 1.9470001
-1.0424795 0.53440511 1.9470001
-1.0365458 0.53403431 1.9470001
-1.0810486 0.54516006 1.9470001
-1.0736315 0.54330575 1.9470001
-1.0699229 0.54330575 1.9470001
-1.0427266 0.5457781 1.9470001
-1.0847572 0.55381334 1.9470001
-1.07734 0.55814004 1.9470001
-1.0649781 0.55690384 1.9470001
-1.0532343 0.55443144 1.9470001
-1.0476714 0.5507229 1.9470001
-1.0847572 0.56370288 1.9470001
-1.07734 0.56370288 1.9470001
-1.0662143 0.56184858 1.9470001
-1.0908858 0.48670289 1.9580001
-1.0852914 0.48670289 1.9580001
-1.0610496 0.48670289 1.9580001
-1.05732 0.48670289 1.9580001
-1.0918181 0.4950943 1.9580001
-1.0871562 0.49229717 1.9580001
-1.0535905 0.49229717 1.9580001
-1.0461315 0.49664828 1.9580001
-1.034943 0.49789146 1.9580001
-1.0927505 0.50348574 1.9580001
-1.0535905 0.50907999 1.9580001
-1.0456653 0.50535047 1.9580001
-1.0354091 0.50535053 1.9580001
-1.0871562 0.51653904 1.9580001
-1.0442667 0.51467431 1.9580001
-1.0356888 0.51430136 1.9579999
-1.0871562 0.5239982 1.9580001
-1.0767136 0.52548993 1.9579999
-1.064779 0.52026862 1.9580001
-1.05732 0.52026862 1.9580001
-1.0438937 0.52325225 1.9579999
-1.03774 0.52306581 1.9580001
-1.0908858 0.53705144 1.9580001
-1.0852914 0.53145719 1.9580001
-1.0796971 0.53145719 1.9580001
-1.03774 0.53425431 1.9580001
-1.0908858 0.54451048 1.9580001
-1.0834267 0.54637527 1.9580001
-1.043645 0.5451321 1.9580001
-1.0386724 0.54264575 1.9580001
-1.0927505 0.5501048 1.9580001
-1.0535905 0.55756384 1.9580001
-1.0461315 0.55445594 1.9580001
-1.0386724 0.55196953 1.9580001
-1.0274838 0.55383438 1.9580001
-1.0971016 0.56502289 1.9580001
-1.0535905 0.56129336 1.9580001
-1.0479963 0.56129336 1.9580001
-1.0274838 0.56129336 1.9580001
-1.1007648 0.48943716 1.9690001
-1.0557591 0.48943716 1.9690001
-1.1007648 0.49506289 1.9690001
-1.0532588 0.49443778 1.9690002
-1.0445076 0.49693811 1.9690002
-1.0341938 0.5053767 1.9690001
-1.0262241 0.50397027 1.969
-1.1007648 0.51194 1.9690001
-1.0970143 0.51381528 1.9690001
-1.0341938 0.51662809 1.9690001
-1.026291 0.51461893 1.969
-1.0970143 0.52506667 1.9690001
-1.0407572 0.5269419 1.9690001
-1.0351315 0.52506667 1.9690001
-1.0295057 0.52319145 1.9690001
-1.1138915 0.53819335 1.9690001
-1.1040465 0.53491163 1.969
-1.0970143 0.53256762 1.9690001
-1.0407572 0.5344429 1.9690001
-1.0351315 0.5344429 1.969
-1.1135164 0.54494417 1.9690001
-1.1045153 0.54569429 1.9690001
-1.0416948 0.54663193 1.9690001
-1.0351315 0.54569429 1.969
-1.1120162 0.55319524 1.9690001
-1.1063905 0.55507052 1.9690001
-1.0407572 0.55507052 1.9690001
-1.0370067 0.55507052 1.9690001
-1.0265054 0.55469549 1.9690001
-1.1120162 0.56819719 1.9690001
-1.1067655 0.56369656 1.9690001
-1.0445076 0.56257141 1.969
-1.0370067 0.56257141 1.9690001
-1.0276306 0.56444669 1.9690001
-1.0107534 0.56632197 1.9690001
-1.0051277 0.56819719 1.9690001
-1.1082658 0.57194763 1.9690001
-1.0051277 0.57382286 1.9690001
-1.0126286 0.45068574 1.9800001
-1.0069714 0.45068574 1.9800001
-1.1220001 0.4865143 1.9800001
-1.1138285 0.48525715 1.9800001
-1.1050285 0.4865143 1.9800001
-1.0635428 0.48557144 1.9800001
-1.0578858 0.48840001 1.9800001
-1.0465715 0.48840001 1.9800001
-1.1125715 0.49594286 1.9800001
-1.0654286 0.49217144 1.9800001
-1.0533601 0.49368 1.9800001
-1.0443087 0.49518856 1.9800001
-1.0367658 0.49745145 1.9800001
-1.0248858 0.49877143 1.9800001
-1.0164 0.4978286 1.9800001
-1.1106857 0.50537145 1.9800001
-1.0220573 0.50537145 1.9800001
-1.0145142 0.50537145 1.9800001
-1.0088571 0.50348574 1.9800001
-1.1106857 0.51480001 1.9800001
-1.1069143 0.51857144 1.9800001
-1.0228654 0.51426119 1.9800003
-1.0145142 0.51480001 1.9800001
-1.0050856 0.51480001 1.9800001
-1.1257715 0.528 1.9800001
-1.1133796 0.52665305 1.9800003
-1.1059713 0.5251714 1.9800001
-1.0324286 0.52705717 1.9800001
-1.0246972 0.52385145 1.9800001
-1.0164 0.52234286 1.9800001
-1.0032001 0.52234286 1.9800001
-1.1238859 0.53554285 1.9800001
-1.1169714 0.53491426 1.9800001
-1.0333714 0.53554285 1.9800001
-1.0239429 0.53459996 1.9800001
-1.0050857 0.53365713 1.9800001
-1.12728 0.54497147 1.9800001
-1.0333714 0.54497147 1.9800001
-1.0239429 0.54874289 1.9800001
-1.1257715 0.55440003 1.9800001
-1.0333714 0.55251431 1.9800001
-1.0220573 0.55440003 1.9800001
-1.0145142 0.55440003 1.9800001
-1.0050857 0.55534291 1.9800001
-0.99754292 0.55628574 1.9800001
-1.1257716 0.56382859 1.9800001
-1.1182286 0.56382859 1.9800001
-1.0314858 0.56382859 1.9800001
-1.0239431 0.56382859 1.9800001
-1.014137 0.56307429 1.9800001
-1.0050856 0.56382859 1.9800001
-0.99754292 0.56382859 1.9800001
-1.1253002 0.57467145 1.9800003
-1.1182286 0.57702857 1.9800001
-1.0239429 0.57325721 1.9800001
-1.0164 0.57702857 1.9800001
-1.0031999 0.57514286 1.9800001
-0.99754292 0.57514286 1.9800001
-1.02256 0.44772571 1.9920001
-1.017501 0.44835809 1.9920001
-1.0415314 0.45531428 1.9920001
-1.0348914 0.45436573 1.9920001
-1.0238248 0.4546819 1.9920001
-1.0187658 0.45721143 1.9920001
-1.0415314 0.46100572 1.9920001
-1.07568 0.47997716 1.9920001
-1.0637552 0.47726697 1.9920003
-1.0554439 0.47744766 1.9920001
-1.1344914 0.48756573 1.9920001
-1.1269028 0.48377144 1.9920001
-1.11552 0.48377144 1.9920001
-1.1098286 0.48377144 1.9920001
-1.07568 0.48377144 1.9920001
-1.0624001 0.4856686 1.9920001
-1.0554439 0.48630098 1.9920001
-1.134112 0.49439543 1.9920002
-1.1265234 0.49591318 1.9920002
-1.0718857 0.49136001 1.9920001
-1.0605029 0.49136001 1.9920001
-1.0567086 0.49136001 1.9920001
-1.0443772 0.49420571 1.9920001
-1.0329944 0.49705145 1.9920001
-1.0250896 0.49641907 1.9920001
-1.0187658 0.4989486 1.9920001
-1.0073829 0.4989486 1.9920001
-1.1257646 0.50501943 1.9920002
-1.0140229 0.50369143 1.9920001
-1.0061182 0.50527239 1.9920001
-1.1344914 0.51792002 1.9920001
-1.1244637 0.5141257 1.9920003
-1.0130744 0.51033145 1.9920001
-1.0048534 0.51412576 1.9920001
-0.9997943 0.51602286 1.9920001
-1.134112 0.5247497 1.9920002
-1.1260898 0.5249666 1.9920003
-1.0244572 0.5293029 1.9920001
-1.0157303 0.52778518 1.9920002
-1.0045371 0.52645719 1.9920001
-0.9997943 0.52361143 1.9920001
-1.1351238 0.5343619 1.9920001
-1.0320458 0.53309715 1.9920001
-1.0238248 0.5343619 1.9920001
-1.0157303 0.53461486 1.9920002
-1.0054858 0.5349943 1.9920001
-1.1363887 0.54447997 1.9920001
-1.0324253 0.54523885 1.9920002
-1.0244572 0.54448003 1.9920002
-1.0138874 0.54393798 1.9920003
-1.0054858 0.54448003 1.9920002
-1.0339429 0.55396575 1.9920001
-1.0244572 0.55206859 1.9920001
-1.0149715 0.55301714 1.9920001
-1.0054858 0.55396575 1.9920001
-0.99852961 0.56598097 1.9920001
-0.9997943 0.57483429 1.9920001
-0.9997943 0.58242285 1.9920001
-0.99005431 0.43493715 2.003
-0.98623908 0.43302953 2.003
-1.0358372 0.4482905 2.003
-1.0238465 0.44338515 2.003
-1.0167609 0.44638288 2.003
-1.0040436 0.44320354 2.003
-0.99768478 0.44447526 2.003
-1.0625439 0.45782858 2.003
-1.0549134 0.45782855 2.003
-1.0453753 0.45210573 2.003
-1.0358372 0.45592093 2.003
-1.0625439 0.46355143 2.003
-1.0549134 0.46545908 2.003
-1.0434676 0.46355143 2.003
-1.0377448 0.46355143 2.003
-1.0816201 0.4788124 2.003
-1.0625439 0.47499716 2.003
-1.056821 0.47499716 2.003
-1.1426638 0.48644286 2.003
-1.1375769 0.48389935 2.003
-1.0778048 0.48262763 2.003
-1.0587286 0.48453525 2.003
-1.0816201 0.49025813 2.003
-1.0778048 0.49025813 2.003
-1.0530057 0.49025813 2.003
-1.0453753 0.49598098 2.003
-1.0377448 0.49407336 2.003
-1.0243914 0.49661684 2.003
-1.0142175 0.49661684 2.003
-1.1426638 0.50551909 2.003
-1.1388487 0.50742674 2.003
-1.0205762 0.5017038 2.003
-1.0167609 0.5017038 2.003
-1.0060784 0.50628215 2.003
-1.1426638 0.51505721 2.003
-1.1359873 0.516011 2.003
-1.0072229 0.51314956 2.003
-1.0015 0.52459526 2.003
-1.0037892 0.53527796 2.003
-1.0243914 0.54748666 2.003
-1.0034077 0.54557908 2.003
-0.99386954 0.54557908 2.003
-1.0243914 0.5513019 2.003
-1.0043615 0.55511719 2.003
-1.0027717 0.56401944 2.003
-0.99768478 0.56274766 2.003
-1.0015 0.57610095 2.003
-0.99323368 0.57292163 2.003
-0.98623908 0.57419336 2.003
-1.0015 0.58373141 2.003
-0.99005431 0.58563906 2.003
-0.98623908 0.58945429 2.003
-1.003662 0.42794764 2.0150001
-0.99598575 0.42794764 2.0150001
-0.98830956 0.42794764 2.0150001
-1.0330874 0.43818256 2.0150001
-1.0247715 0.43946192 2.0150001
-1.0132571 0.43946192 2.0150001
-1.0051973 0.43639144 2.0150001
-0.99752104 0.43408856 2.0150001
-1.0689095 0.4471381 2.0150001
-1.0535572 0.4471381 2.0150001
-1.0458809 0.44521907 2.0150001
-1.0382048 0.44521904 2.0150001
-1.0228524 0.44330001 2.0150001
-1.0170953 0.44521904 2.0150001
-1.005581 0.44330001 2.0150001
-1.0804238 0.45673335 2.0150001
-1.0742829 0.45558196 2.0150001
-1.066031 0.45385477 2.0150001
-1.0561159 0.45225558 2.0150001
-1.0497191 0.45097619 2.0150001
-1.0151762 0.45097622 2.0150001
-1.005581 0.45097619 2.0150001
-1.0823429 0.46440953 2.0150001
-1.0746667 0.46440953 2.0150001
-1.0957762 0.47448453 2.0150001
-1.0823429 0.47208571 2.0150001
-1.0753064 0.47144604 2.0150001
-1.066031 0.47304523 2.0150001
-1.0573952 0.47592384 2.0150001
-1.0842619 0.48935717 2.0150001
-1.0612334 0.48551905 2.0150001
-1.0573952 0.48551908 2.0150001
-1.0247715 0.48935717 2.0150001
-1.0190144 0.48743811 2.0150001
-1.0535572 0.49319527 2.0150001
-1.045881 0.49511433 2.0150001
-1.0334072 0.49511433 2.0150001
-1.0247715 0.49511433 2.0150001
-1.0151762 0.49511433 2.0150001
-1.0062207 0.495754 2.0150001
-0.99675339 0.49549812 2.0150001
-1.0126175 0.50215077 2.0150001
-1.005581 0.50470954 2.0150001
-0.99598575 0.50470954 2.0150001
-1.0049413 0.51494449 2.0150001
-0.99675333 0.51392096 2.0150001
-0.98830956 0.51238573 2.0150001
-1.0046215 0.52294052 2.0150001
-0.99790484 0.52390003 2.0150001
-1.003662 0.53541428 2.0150001
-0.99598575 0.53541428 2.0150001
-0.98447138 0.53733331 2.0150001
-1.0049413 0.54436988 2.0150001
-0.9952181 0.54462576 2.0150001
-0.9844715 0.54692858 2.0150001
-1.0046215 0.55460477 2.0150001
-0.99550605 0.55508453 2.0150001
-0.9844715 0.55268574 2.0150001
-1.0049413 0.56483966 2.0150001
-0.99598575 0.56611907 2.0150001
-0.98447138 0.56803817 2.0150001
-0.99598575 0.57571435 2.0150001
-0.9844715 0.57571435 2.0150001
-0.97679526 0.57571435 2.0150001
-1.003662 0.58530951 2.0150001
-0.99598581 0.58530951 2.0150001
-0.98447144 0.58530951 2.0150001
-0.97679526 0.58530951 2.0150001
-1.003662 0.59298575 2.0150001
-0.99694526 0.5958643 2.0150001
-0.98447138 0.59490472 2.0150001
-0.97679526 0.59298575 2.0150001
-0.99406672 0.6045 2.0150001
-0.98639041 0.60450006 2.0150001
-0.99406672 0.61217624 2.0150001
-0.98639053 0.6160143 2.0150001
-0.98830956 0.62369049 2.0150001
-0.97679526 0.65439528 2.0150001
-1.0083522 0.41762635 2.0270002
-1.017361 0.42663527 2.0270002
-1.0065504 0.42509088 2.0270002
-0.99419528 0.42663527 2.0270002
-1.102302 0.43242669 2.0270002
-1.097154 0.4317832 2.0270002
-1.0540401 0.43821812 2.0270002
-1.0443877 0.43435717 2.0270002
-1.0353788 0.43693113 2.0270002
-1.0246004 0.43483979 2.0270002
-1.0158167 0.43358499 2.0270002
-1.0945801 0.44980097 2.0270002
-1.0849277 0.44980097 2.0270002
-1.0752753 0.4474844 2.0270002
-1.0656229 0.44787049 2.0270002
-1.0569358 0.4430443 2.0270002
-1.0463182 0.44207907 2.0270002
-1.0250829 0.44207907 2.0270002
-1.0945801 0.45559239 2.0270002
-1.0849277 0.45366192 2.0270002
-1.0714144 0.45366192 2.0270002
-1.0675534 0.45366192 2.0270002
-1.0270134 0.45752287 2.0270002
-1.1035889 0.46781874 2.0270002
-1.0956832 0.46469322 2.0270002
-1.102302 0.47296667 2.0270002
-1.0945801 0.47489715 2.0270002
-1.0791363 0.47682765 2.0270002
-1.057901 0.47489715 2.0270002
-1.0920061 0.48197559 2.0270002
-1.0849277 0.4806886 2.0270002
-1.0582871 0.48532176 2.0270002
-1.0405267 0.4884105 2.0270002
-1.0347353 0.4884105 2.0270002
-1.0260482 0.48648003 2.0270002
-1.0154306 0.4884105 2.0270002
-1.0551984 0.49381584 2.0270002
-1.0443877 0.49323669 2.0270002
-1.0366658 0.49227145 2.0270002
-1.021222 0.49227145 2.0270002
-1.0160741 0.49355844 2.0270002
-1.0067433 0.49323669 2.0270002
-0.99419534 0.4961324 2.0270002
-0.98454291 0.49999335 2.0270002
-0.99226481 0.50578475 2.0270002
-0.98454291 0.50578475 2.0270002
-0.97875148 0.50578475 2.0270002
-0.9929083 0.51608068 2.0270002
-0.98454291 0.51543719 2.0270002
-0.97720706 0.51620936 2.0270002
-0.99419528 0.52508956 2.0270002
-0.98454291 0.52508956 2.0270002
-0.97682101 0.52508956 2.0270002
-0.9934231 0.53242534 2.0270002
-0.98415679 0.53396976 2.0270002
-0.97875148 0.53474194 2.0270002
-0.99226481 0.54632479 2.0270002
-0.98389941 0.54503781 2.0270002
-0.97875148 0.54439431 2.0270002
-0.98261243 0.55404669 2.0270002
-0.97875148 0.55018574 2.0270002
-0.99226481 0.56369907 2.0270002
-0.98415679 0.56485736 2.0270002
-0.97682101 0.56949049 2.0270002
-0.98261243 0.57335144 2.0270002
-0.97875148 0.57528192 2.0270002
-0.97720706 0.58493429 2.0270002
-0.97682101 0.59458667 2.0270002
-0.98415679 0.60501122 2.0270002
-0.97537321 0.60472167 2.0270002
-0.99805623 0.61968291 2.0270002
-0.98454291 0.6158219 2.0270002
-0.97489059 0.6158219 2.0270002
-0.96716863 0.61968291 2.0270002
-0.99548227 0.62611783 2.0270002
-0.9851864 0.62483084 2.0270002
-0.97489053 0.6245091 2.0270002
-0.96716863 0.62354386 2.0270002
-0.99033433 0.63126576 2.0270002
-0.98647338 0.63705719 2.0270002
-0.96330768 0.63705719 2.0270002
-0.95944673 0.63898766 2.0270002
-0.98454291 0.64477909 2.0270002
-0.97489053 0.64381385 2.0270002
-0.96330768 0.64477909 2.0270002
-0.95944673 0.64477909 2.0270002
-0.98454291 0.65057051 2.0270002
-0.97489053 0.65636188 2.0270002
-0.96427292 0.6553967 2.0270002
-0.95848149 0.6553967 2.0270002
-0.98492897 0.66678649 2.0270002
-0.97489059 0.66601425 2.0270002
-0.96427292 0.66504908 2.0270002
-0.95815974 0.66344035 2.0270002
-0.98389941 0.67502326 2.0270002
-0.97585577 0.67663193 2.0270002
-0.98261243 0.68338859 2.0270002
-0.97553402 0.68467551 2.0270002
-0.95944673 0.75481623 2.0270002
-0.95172477 0.83203524 2.0270002
-0.94593334 0.83203524 2.0270002
-1.0233839 0.41750953 2.039
-1.0156163 0.41621494 2.039
-1.0059067 0.41750953 2.039
-1.0505705 0.42916098 2.039
-1.0447447 0.42916098 2.039
-1.0350353 0.42916098 2.039
-1.0257142 0.42450038 2.039
-1.0195 0.42527714 2.039
-1.0047415 0.42372364 2.039
-1.1127114 0.4369286 2.039
-1.0641638 0.4369286 2.039
-1.0563962 0.43498671 2.039
-1.0428029 0.43304479 2.039
-1.0376245 0.4343394 2.039
-1.1039729 0.44566718 2.039
-1.094587 0.44728541 2.039
-1.0864958 0.44566715 2.039
-1.0758153 0.44469622 2.039
-1.0686949 0.44210705 2.039
-1.1075331 0.45375845 2.039
-1.0971762 0.45246384 2.039
-1.1127114 0.46605718 2.039
-1.1088277 0.46217334 2.039
-1.0253258 0.46023145 2.039
-1.0583382 0.47770858 2.039
-1.0622219 0.48353431 2.039
-1.0554253 0.48644716 2.039
-1.0447447 0.48741812 2.039
-1.0350353 0.4854762 2.039
-1.0253258 0.48741812 2.039
-1.0195 0.48741812 2.039
-1.0544543 0.49130192 2.039
-1.0136743 0.49130192 2.039
-1.0078486 0.49130192 2.039
-0.993608 0.49648035 2.039
-0.98532248 0.49751601 2.039
-0.98195654 0.50424796 2.039
-0.9754836 0.50554258 2.039
-0.98066193 0.51266289 2.039
-0.97483617 0.51460481 2.0389998
-0.96901053 0.51848859 2.039
-0.97483623 0.52431434 2.039
-0.98066193 0.53596574 2.039
-0.97677821 0.53402382 2.039
-0.98066193 0.54567528 2.039
-0.97580719 0.54664624 2.039
-0.96318483 0.54179144 2.039
-0.95541716 0.54179144 2.039
-0.94959146 0.54179144 2.039
-0.98195654 0.55603206 2.039
-0.97483623 0.55538476 2.039
-0.98260385 0.56509429 2.0389998
-0.97483617 0.56509429 2.0389998
-0.98066193 0.57674575 2.039
-0.97483623 0.57286191 2.039
-0.98066193 0.58451331 2.039
-0.97677815 0.58451337 2.039
-0.97677815 0.5942229 2.039
-0.97483623 0.60393238 2.039
-0.96901053 0.60781622 2.039
-0.97289437 0.61558384 2.039
-0.96901053 0.61558384 2.039
-0.96609765 0.62626427 2.039
-0.9942553 0.63694477 2.039
-0.98503119 0.63548839 2.0389998
-0.97483617 0.63500285 2.0389998
-0.96512669 0.63500279 2.0389998
-0.95735908 0.63694477 2.039
-0.99619716 0.64277053 2.039
-0.98454571 0.64277053 2.039
-0.97418898 0.64406514 2.039
-0.96124291 0.64471245 2.039
-0.95735908 0.64471245 2.039
-0.98325115 0.65312731 2.039
-0.97444785 0.65364516 2.039
-0.96124291 0.65442199 2.039
-0.95541716 0.65442193 2.039
-0.94959146 0.65830576 2.039
-0.97289431 0.66995716 2.039
-0.96124291 0.66995716 2.039
-0.95606446 0.66348416 2.039
-0.94959146 0.66218954 2.039
-0.98066193 0.67772478 2.039
-0.97418898 0.67643023 2.039
-0.96434993 0.6761713 2.039
-0.98454577 0.68937624 2.039
-0.97386527 0.68646336 2.039
-0.96706861 0.68549246 2.0389998
-0.98260385 0.69714385 2.039
-0.97483623 0.69520193 2.039
-0.96706861 0.69520193 2.039
-0.98066193 0.70491147 2.039
-0.97580719 0.70394051 2.039
-0.96706861 0.70102763 2.039
-0.98066193 0.71267909 2.039
-0.97289431 0.73792386 2.039
-0.96512669 0.75475365 2.0389998
-0.96383214 0.76446319 2.039
-0.9534753 0.77870381 2.039
-0.94376576 0.83696097 2.039
-0.95541716 0.84084481 2.039
-0.94959146 0.84084481 2.039
-1.06066 0.41996667 2.0510001
-1.0548 0.41996667 2.0510001
-1.0352666 0.41996667 2.0510001
-1.0215933 0.41215336 2.0510001
-1.0157334 0.41410667 2.0510001
-1.0054784 0.41557163 2.0510004
-1.0548 0.42582667 2.0510001
-1.0442522 0.42621732 2.0510001
-1.03722 0.42582667 2.0510001
-1.0033622 0.42517555 2.0510001
-1.1446533 0.4395 2.0510001
-1.0743334 0.43754667 2.0510001
-1.0645667 0.43364 2.0510001
-1.1446533 0.44340667 2.0510001
-1.1153533 0.44536 2.0510001
-1.1062379 0.4460111 2.0510001
-1.0958201 0.44340667 2.0510001
-1.0841001 0.44340667 2.0510001
-1.1153533 0.45122001 2.0510001
-1.1231667 0.46684667 2.0510001
-1.1231667 0.47270668 2.0510001
-1.06066 0.47856668 2.0510001
-1.06066 0.48442668 2.0510001
-1.0567534 0.48442668 2.0510001
-1.0450335 0.48638001 2.0510001
-1.0352666 0.48442668 2.0510001
-1.0294067 0.48638001 2.0510001
-0.99034005 0.48638001 2.0510001
-1.0215933 0.49028668 2.0510001
-1.01378 0.49028668 2.0510001
-1.0059667 0.49419335 2.0510001
-0.9934653 0.49263066 2.0510001
-0.98487073 0.49497467 2.0510001
-0.98252672 0.50200671 2.0510001
-0.97471333 0.50591338 2.0510004
-0.96690005 0.50786674 2.0510001
-0.97276008 0.51568007 2.0510001
-0.96559787 0.51502895 2.0510001
-0.95908672 0.51372671 2.0510001
-0.97236937 0.52622807 2.0510001
-0.96494675 0.52544671 2.0510004
-0.95615673 0.5283767 2.0510001
-0.97471339 0.53521341 2.0510004
-0.96494675 0.53521335 2.0510001
-0.95517999 0.53521341 2.0510004
-0.94736671 0.53521335 2.0510001
-0.97520167 0.54498005 2.0510004
-0.96494669 0.54498005 2.0510001
-0.95462197 0.54498011 2.0510004
-0.94736671 0.54498005 2.0510001
-0.97276008 0.55474663 2.0510001
-0.96494675 0.55474663 2.0510001
-0.95713341 0.55474663 2.0510001
-0.97276002 0.56451333 2.0510004
-0.96494675 0.56451327 2.0510004
-0.95713341 0.56256002 2.0510001
-0.97276008 0.57428002 2.0510001
-0.96559787 0.57493114 2.0510001
-0.98252672 0.58209336 2.0510001
-0.97471344 0.58404672 2.0510004
-0.96690005 0.58795333 2.0510001
-0.95518005 0.58013999 2.0510001
-0.94736671 0.58013999 2.0510001
-0.98252672 0.59186 2.0510001
-0.97520173 0.596255 2.0510004
-0.97393209 0.60514271 2.0510001
-0.97080678 0.6153 2.0510001
-0.96494675 0.6153 2.0510004
-0.97080672 0.62506664 2.0510001
-0.96494669 0.62506664 2.0510001
-0.95713335 0.62506664 2.0510001
-0.96429563 0.63353109 2.0510001
-0.95566845 0.63483334 2.0510004
-0.95518011 0.64459997 2.0510004
-0.96299338 0.65827334 2.0510001
-0.95469177 0.65436673 2.0510004
-0.95420337 0.66706336 2.0510001
-0.96299338 0.67585337 2.0510001
-0.95713335 0.67585331 2.0510001
-0.96559787 0.68822449 2.0510001
-0.95908672 0.68952668 2.0510001
-0.96559787 0.69473553 2.0510001
-0.97471339 0.70906001 2.0510001
-0.96494675 0.70319998 2.0510001
-0.98252672 0.71687335 2.0510001
-0.97471333 0.71492004 2.0510004
-0.96690005 0.71687335 2.0510001
-0.98252672 0.72273338 2.0510001
-0.97862005 0.72078001 2.0510001
-0.97276008 0.74617332 2.0510001
-0.96592337 0.74422002 2.0510001
-0.95713341 0.74812669 2.0510001
-0.97276008 0.75203335 2.0510001
-0.96690005 0.75398672 2.0510001
-0.95811003 0.75496328 2.0510001
-0.96299338 0.76570666 2.0510001
-0.95778447 0.7650556 2.0510001
-0.97080672 0.77547336 2.0510001
-0.96494675 0.77156669 2.0510001
-0.95908672 0.77547336 2.0510001
-0.95518005 0.78328669 2.0510001
-0.94346005 0.83798003 2.0510001
-0.95517999 0.84839779 2.0510001
-0.94476223 0.84449118 2.0510001
-1.0346437 0.41692251 2.0630002
-1.0983019 0.42635334 2.0630002
-1.0825839 0.42635334 2.0630002
-1.0734149 0.42504349 2.0630002
-1.0668658 0.42635334 2.0630002
-1.0537673 0.42373368 2.0630002
-1.0472181 0.42242384 2.0630002
-1.1100905 0.43814191 2.0630002
-1.1035414 0.43683207 2.0630002
-1.096992 0.43683207 2.0630002
-1.0825839 0.43421236 2.0630002
-1.0755107 0.43185467 2.0630002
-1.0668658 0.43028286 2.0630002
-1.1631391 0.44993049 2.0630002
-1.1559349 0.44862065 2.0630002
-1.1443336 0.44656235 2.063
-1.1366148 0.44698334 2.0630002
-1.1277733 0.44796571 2.0630002
-1.1120553 0.44403619 2.0630002
-1.1041963 0.44207144 2.0630002
-1.0943724 0.44207144 2.0630002
-1.0865134 0.44207144 2.0630002
-1.1631391 0.45582476 2.0630002
-1.1552801 0.45582479 2.0630002
-1.1454562 0.45582476 2.063
-1.1356325 0.45582479 2.0630002
-1.1277733 0.45582479 2.0630002
-1.1542977 0.46466622 2.0630002
-1.1454563 0.46564853 2.063
-1.1356325 0.46564856 2.063
-1.1277734 0.46368384 2.0630002
-1.1533153 0.47350764 2.0630002
-1.1454563 0.47350764 2.0630002
-1.1349776 0.47481748 2.0630002
-1.0629362 0.47743717 2.0630002
-1.0570419 0.47743717 2.0630002
-1.0275705 0.47743717 2.0630002
-1.0177467 0.47743717 2.0630002
-1.0629362 0.48136669 2.0630002
-1.055863 0.48529619 2.0630002
-1.0472181 0.48529622 2.0630002
-1.0341197 0.48529622 2.0630002
-1.0265881 0.48627859 2.0630002
-1.0162731 0.48578739 2.063
-1.0053033 0.48660603 2.063
-0.99220479 0.48922575 2.0630002
-0.98532814 0.48824337 2.0630002
-0.96076858 0.48922575 2.0630002
-0.95290953 0.48922575 2.0630002
-1.023641 0.49315527 2.0630002
-1.0138172 0.49315527 2.0630002
-1.0059581 0.49315527 2.0630002
-0.98355979 0.49472708 2.0630002
-0.97452188 0.49512002 2.0630002
-0.96391219 0.49551296 2.0630002
-0.95421934 0.49577495 2.0630002
-0.94898003 0.49315527 2.0630002
-0.98238099 0.50101429 2.0630002
-0.97452193 0.50297904 2.0630002
-0.96469814 0.50494379 2.063
-0.95487428 0.50494385 2.063
-0.94617325 0.50550514 2.063
-0.96371573 0.51378524 2.0630002
-0.95487428 0.51476765 2.0630002
-0.94505048 0.51476765 2.063
-0.96338826 0.52328163 2.063
-0.95487428 0.52459145 2.063
-0.94505054 0.52459151 2.063
-0.93483371 0.5238055 2.0630002
-0.92933244 0.52459145 2.0630002
-0.95290953 0.5324505 2.0630002
-0.94583642 0.53402227 2.0630002
-0.93326193 0.5324505 2.0630002
-0.94898003 0.54423904 2.0630002
-0.95487428 0.5579924 2.0630002
-0.94898003 0.55406284 2.0630002
-0.95487428 0.56585145 2.0630002
-0.94898003 0.5678162 2.0630002
-0.96357542 0.57567531 2.063
-0.95487428 0.57567531 2.063
-0.94767022 0.57698512 2.0630002
-0.97255719 0.58549905 2.0630002
-0.96548402 0.58589202 2.0630002
-0.95552921 0.58615398 2.0630002
-0.94701529 0.58549905 2.0630002
-0.973867 0.59663272 2.0630002
-0.96469814 0.59532285 2.063
-0.95487428 0.59532285 2.063
-0.94554174 0.59581405 2.063
-0.93719149 0.5992524 2.0630002
-0.97255719 0.60514665 2.0630002
-0.96469808 0.60514665 2.063
-0.95487428 0.60514665 2.0630002
-0.94505054 0.60514665 2.063
-0.93719149 0.60514665 2.0630002
-0.97255719 0.61104095 2.0630002
-0.96357542 0.61440909 2.063
-0.95487428 0.61497051 2.063
-0.94505048 0.61497045 2.063
-0.93719149 0.6189 2.0630002
-0.96273339 0.62282956 2.0630002
-0.95487428 0.6247943 2.0630002
-0.94583642 0.62440139 2.0630002
-0.9544813 0.63461816 2.0630002
-0.9474082 0.63383222 2.0630002
-0.95290953 0.64444196 2.0630002
-0.94767022 0.64509684 2.0630002
-0.95290953 0.6542657 2.0630002
-0.9474082 0.65347987 2.0630002
-0.95290953 0.66408956 2.0630002
-0.94898003 0.66605431 2.0630002
-0.95683908 0.67587811 2.0630002
-0.96469814 0.68766665 2.063
-0.95683908 0.68373716 2.0630002
-0.96207839 0.69618064 2.0630002
-0.95683908 0.69356096 2.0630002
-0.93326193 0.69749051 2.0630002
-0.96357542 0.70478815 2.063
-0.95487428 0.70731425 2.0630002
-0.93326193 0.7053495 2.0630002
-0.97255719 0.71517336 2.0630002
-0.96469814 0.71517342 2.063
-0.95487428 0.71517336 2.0630002
-0.94583642 0.71556628 2.0630002
-0.93457174 0.71582824 2.0630002
-0.98172611 0.72761685 2.0630002
-0.97452188 0.72696197 2.0630002
-0.96469808 0.7249971 2.063
-0.95487428 0.7249971 2.063
-0.94505054 0.7249971 2.063
-0.93522668 0.72106767 2.0630002
-0.98238099 0.73482096 2.0630002
-0.97452193 0.73482096 2.0630002
-0.96469814 0.73482102 2.063
-0.95487428 0.73482102 2.0630002
-0.94583642 0.73521394 2.0630002
-0.93719149 0.73678577 2.0630002
-0.98172611 0.74202508 2.0630002
-0.97517681 0.74202508 2.0630002
-0.96420693 0.7441535 2.063
-0.95487428 0.74464482 2.063
-0.94799763 0.74562716 2.0630002
-0.96862763 0.75446856 2.0630002
-0.95487428 0.75446856 2.0630002
-0.94505054 0.75446862 2.063
-0.93719149 0.75643337 2.0630002
-0.96469814 0.76232761 2.0630002
-0.95487428 0.76429242 2.063
-0.94505054 0.76429242 2.063
-0.93588161 0.76298255 2.0630002
-0.96076858 0.77411622 2.0630002
-0.95487428 0.77411622 2.0630002
-0.94505054 0.77411622 2.063
-0.93719149 0.77215147 2.0630002
-0.97255719 0.78001052 2.0630002
-0.96469814 0.7815823 2.0630002
-0.95487428 0.78394002 2.063
-0.94505054 0.78394002 2.063
-0.93561965 0.78472596 2.0630002
-0.92933244 0.78590477 2.0630002
-0.95487428 0.79179907 2.0630002
-0.94426459 0.7933709 2.0630002
-0.93424428 0.79474622 2.0630002
-0.92933244 0.79769337 2.0630002
-0.94505054 0.80358768 2.0630002
-0.93457174 0.80489749 2.0630002
-0.92933244 0.80751717 2.0630002
-0.93719149 0.83502382 2.0630002
-0.94308573 0.84484768 2.0630002
-0.96568048 0.85761857 2.0630002
-0.95487428 0.85663629 2.0630002
-0.94603288 0.85368907 2.0630002
-0.96273339 0.86253053 2.0630002
-0.95487428 0.86253053 2.0630002
-0.94898003 0.86253053 2.0630002
-1.0478857 0.41717717 2.0760002
-1.1012686 0.42706287 2.0760002
-1.0953372 0.42706287 2.0760002
-1.0848867 0.42395592 2.0760002
-1.0617257 0.42113143 2.0760002
-1.0557942 0.42113143 2.0760002
-1.0498629 0.42113143 2.0760002
-1.1131315 0.4369486 2.0760002
-1.1042345 0.43398291 2.0760002
-1.0953372 0.43497145 2.0760002
-1.1408114 0.44881144 2.0760002
-1.1170858 0.44485715 2.0760002
-1.0953372 0.44090286 2.0760002
-1.1764001 0.45276573 2.0760002
-1.1724458 0.46660572 2.0760002
-1.1671734 0.46726477 2.0760002
-1.1803544 0.47451431 2.0760002
-1.174423 0.47451431 2.0760002
-1.1665144 0.47451431 2.0760002
-1.0314096 0.47517335 2.0760002
-1.0241601 0.47451431 2.0760002
-1.06568 0.4844 2.0760002
-1.0439315 0.48440003 2.0760002
-1.0340458 0.48440003 2.0760002
-1.0169106 0.48176384 2.0760002
-0.98461717 0.4883543 2.0760002
-0.97473145 0.4883543 2.0760002
-0.96550483 0.4870362 2.0760002
-0.95575094 0.4867726 2.0760002
-0.94507432 0.4883543 2.0760002
-0.98264003 0.49230859 2.0760002
-0.97473145 0.49329716 2.0760002
-0.96286863 0.49428573 2.0760002
-0.95232385 0.49362668 2.0760002
-0.94507432 0.49428573 2.0760002
-0.93914288 0.49428573 2.0760002
-0.9529829 0.50021714 2.0760002
-0.94507432 0.50417143 2.0760002
-0.93716574 0.50417143 2.0760002
-0.94309717 0.51603431 2.0760002
-0.93568289 0.51652861 2.0760002
-0.92728001 0.5199886 2.0760002
-0.9325524 0.52526098 2.0760002
-0.92728001 0.52592003 2.0760002
-0.94408572 0.5367943 2.0760002
-0.93405885 0.53637064 2.0760002
-0.92728001 0.5358057 2.0760002
-0.95232385 0.54503238 2.0760002
-0.94573337 0.54503238 2.0760002
-0.93518859 0.54569143 2.0760002
-0.92728001 0.54569143 2.0760002
-0.95199436 0.55458856 2.0760002
-0.94705147 0.55557716 2.0760002
-0.93650669 0.55623627 2.0760002
-0.91541719 0.55162287 2.0760002
-0.9529829 0.56546289 2.0760002
-0.9519943 0.57633722 2.0760002
-0.94507432 0.57534862 2.0760002
-0.93756115 0.57455778 2.0760002
-0.94507432 0.58523428 2.0760002
-0.93716574 0.58523428 2.0760002
-0.9446789 0.59432918 2.0760002
-0.93716574 0.59512001 2.0760002
-0.92332578 0.59116572 2.0760002
-0.93518859 0.60500574 2.0760002
-0.92728001 0.60698289 2.0760002
-0.94309717 0.61686862 2.0760002
-0.93518859 0.61489147 2.0760002
-0.92530286 0.61686862 2.0760002
-0.91739434 0.61884576 2.0760002
-0.94309717 0.62675428 2.0760002
-0.93518859 0.6247772 2.0760002
-0.92530292 0.6247772 2.0760002
-0.91739434 0.6247772 2.0760002
-0.94507432 0.63466281 2.0760002
-0.93518859 0.63466287 2.0760002
-0.9253028 0.63466287 2.0760002
-0.91937143 0.63466287 2.0760002
-0.95100576 0.64454859 2.0760002
-0.94507432 0.64454859 2.0760002
-0.93518859 0.64454865 2.0760002
-0.92530286 0.64454859 2.0760002
-0.94507432 0.65443426 2.0760002
-0.93518859 0.65443444 2.0760002
-0.9253028 0.65443432 2.0760002
-0.91805339 0.65707052 2.0760002
-0.95100576 0.66431999 2.0760002
-0.94507432 0.66431999 2.0760002
-0.93518859 0.66432005 2.0760002
-0.92530286 0.66431999 2.0760002
-0.91805339 0.663661 2.0760002
-0.95430106 0.67552382 2.0760002
-0.94507432 0.67420572 2.0760002
-0.93469435 0.67371142 2.0760002
-0.92728001 0.67025143 2.0760002
-0.91937149 0.67025143 2.0760002
-0.95496005 0.68409139 2.0760002
-0.94507432 0.68409145 2.0760002
-0.93518859 0.68409145 2.0760002
-0.96286863 0.69397718 2.0760002
-0.95496011 0.69397718 2.0760002
-0.94507432 0.69397718 2.0760002
-0.9363184 0.69454211 2.0760002
-0.96286863 0.70386291 2.0760002
-0.95446575 0.70534575 2.0760002
-0.94507432 0.70584005 2.0760002
-0.93321151 0.70584005 2.0760002
-0.9529829 0.71374857 2.0760002
-0.94507432 0.71572566 2.0760002
-0.93321145 0.71572572 2.0760002
-0.94309717 0.72956574 2.0760002
-0.93405879 0.72617632 2.0760002
-0.94441527 0.73615623 2.0760002
-0.93597949 0.73510176 2.0760002
-0.95100576 0.74736005 2.0760002
-0.94507432 0.74736005 2.0760002
-0.9363184 0.74538285 2.0760002
-0.94441527 0.75460953 2.0760002
-0.93716574 0.75526857 2.0760002
-0.94309717 0.76910859 2.0760002
-0.93469435 0.7651543 2.0760002
-0.92530286 0.76713145 2.0760002
-0.93518859 0.77504009 2.0760002
-0.92530286 0.77504003 2.0760002
-0.94309717 0.78097147 2.0760002
-0.93462372 0.78379595 2.0760002
-0.9253028 0.78492576 2.0760002
-0.91937149 0.78492576 2.0760002
-0.9325524 0.79547048 2.0760002
-0.92596197 0.79415244 2.0760002
-0.95575082 0.80311549 2.0760002
-0.94441527 0.80337906 2.0760002
-0.9322229 0.80568576 2.0760002
-0.92569828 0.80548799 2.0760002
-0.94309717 0.81260574 2.0760002
-0.93420005 0.81557149 2.0760002
-0.93914288 0.8284229 2.0760002
-0.94309717 0.83435434 2.0760002
-0.93914288 0.8323772 2.0760002
-0.95100576 0.84424001 2.0760002
-0.94441527 0.84555811 2.0760002
-0.93518859 0.84582174 2.0760002
-0.92728001 0.8481943 2.0760002
-0.94309717 0.85412574 2.0760002
-0.93716574 0.85214859 2.0760002
-0.92728001 0.85214859 2.0760002
-0.91937149 0.85214859 2.0760002
-0.95100576 0.86401147 2.0760002
-0.94705147 0.86401147 2.0760002
-1.0638858 0.4195886 2.0880001
-1.0599086 0.4195886 2.0880001
-1.0996801 0.42356572 2.0880001
-1.1851885 0.45737144 2.0880001
-1.1832 0.46532571 2.0880001
-1.1851885 0.47129145 2.0880001
-0.98036575 0.48720002 2.0880001
-0.97638863 0.48720002 2.0880001
-0.96843433 0.48720002 2.0880001
-0.94191998 0.49515429 2.0880001
-0.93462861 0.49714285 2.0880001
-0.9286629 0.49714285 2.0880001
-0.93462861 0.50509715 2.0880001
-0.92733717 0.50576001 2.0880001
-0.93423092 0.51424462 2.0880001
-0.92667437 0.51504004 2.0880001
-0.9254812 0.52458513 2.0880001
-0.92582214 0.53435755 2.0880001
-0.9254812 0.54526627 2.0880001
-0.95252573 0.55481148 2.0880001
-0.94656003 0.55481148 2.0880001
-0.93396574 0.55613714 2.0880001
-0.92518288 0.55481148 2.0880001
-0.91673148 0.55481148 2.0880001
-0.95252573 0.56475431 2.0880001
-0.9455657 0.56574857 2.0880001
-0.93462861 0.56475431 2.0880001
-0.92468578 0.56475431 2.0880001
-0.95252573 0.57072002 2.0880001
-0.9445715 0.57072002 2.0880001
-0.93462855 0.57469714 2.0880001
-0.92468578 0.5746972 2.0880001
-0.91673148 0.57072002 2.0880001
-0.94059432 0.58265144 2.0880001
-0.93529147 0.58530289 2.0880001
-0.92568004 0.58563435 2.0880001
-0.91673148 0.58662862 2.0880001
-0.94258285 0.59856004 2.0880001
-0.93462867 0.59458286 2.0880001
-0.92418861 0.59458292 2.0880001
-0.91474277 0.59458286 2.0880001
-0.93396574 0.60386288 2.0880001
-0.92468578 0.60452574 2.0880001
-0.91474283 0.60452574 2.0880001
-0.93264002 0.61446857 2.0880001
-0.92418861 0.61397153 2.0880001
-0.91474277 0.61446857 2.0880001
-0.90745145 0.6157943 2.0880001
-0.91474289 0.62441146 2.0880001
-0.9048 0.62441146 2.0880001
-0.9207086 0.63634288 2.0880001
-0.91514063 0.63355887 2.0880001
-0.90380579 0.63137144 2.0880001
-0.92203432 0.64495999 2.0880001
-0.91540575 0.64363426 2.0880001
-0.9222995 0.65344459 2.0880001
-0.91673154 0.65424007 2.0880001
-0.91673148 0.6641829 2.0880001
-0.93264002 0.67810291 2.0880001
-0.92402285 0.67545146 2.0880001
-0.91540575 0.67280006 2.0880001
-0.94457144 0.68406856 2.0880001
-0.93396574 0.68473148 2.0880001
-0.92468572 0.68406862 2.0880001
-0.94457144 0.69003433 2.0880001
-0.93502635 0.69401145 2.0880001
-0.92468578 0.6956023 2.0880001
-0.93264002 0.70594293 2.0880001
-0.92518294 0.70643997 2.0880001
-0.93264002 0.71588576 2.0880001
-0.92667431 0.71588576 2.0880001
-0.93264002 0.72582859 2.0880001
-0.92707205 0.72662401 2.0880001
-0.93264002 0.73577142 2.0880001
-0.92568004 0.73477721 2.0880001
-0.93423092 0.74491882 2.0880001
-0.92866296 0.74571425 2.0880001
-0.93462861 0.75565714 2.0880001
-0.9286629 0.7556572 2.0880001
-0.93462861 0.76361144 2.0880001
-0.92369151 0.76758862 2.0880001
-0.9127543 0.76560003 2.0880001
-0.92269719 0.77554286 2.0880001
-0.9222995 0.78469032 2.0880001
-0.92336005 0.79476577 2.0880001
-0.88889146 0.79741716 2.0880001
-0.92667437 0.8043772 2.0880001
-0.89552003 0.80802292 2.0880001
-0.88889146 0.80934858 2.0880001
-0.93264002 0.81730288 2.0880001
-0.92667437 0.81531429 2.0880001
-0.89485717 0.81332576 2.0880001
-0.88889146 0.81332576 2.0880001
-0.94258285 0.8292343 2.0880001
-0.93462861 0.82625151 2.0880001
-0.94059432 0.83520007 2.0880001
-0.93462861 0.83520001 2.0880001
-0.9286629 0.8371886 2.0880001
-0.95252573 0.84315431 2.0880001
-0.94457144 0.84514284 2.0880001
-0.93462867 0.8451429 2.0880001
-0.9260115 0.84646863 2.0880001
-0.9366172 0.85707432 2.0880001
-0.92567998 0.85508579 2.0880001
-0.94457144 0.86304003 2.0880001
-0.93462867 0.86502862 2.0880001
-0.92627656 0.8642332 2.0880001
-0.88093716 0.86502862 2.0880001
-0.87696004 0.86701715 2.0880001
-0.93462861 0.87298286 2.0880001
-0.92468578 0.87298286 2.0880001
-1.0625057 0.41819906 2.1010001
-1.0565028 0.41819906 2.1010001
-1.1945686 0.46422097 2.1010001
-1.1945686 0.47022381 2.1010001
-1.0224867 0.49023336 2.1010001
-1.0164838 0.49423525 2.1010001
-0.96245813 0.49023336 2.1010001
-0.95645523 0.49023336 2.1010001
-0.94645053 0.49423525 2.1010001
-0.93044287 0.49823716 2.1010001
-0.92644101 0.49823716 2.1010001
-0.93044287 0.50424004 2.1010001
-0.92644101 0.50624096 2.1010001
-0.92484027 0.51504517 2.1010001
-0.92377305 0.52358252 2.1010001
-0.92403984 0.53425431 2.1010001
-0.9164362 0.53425431 2.1010001
-0.92444003 0.54425907 2.1010001
-0.9224391 0.5522629 2.1010001
-0.91843718 0.55426383 2.1010001
-0.9224391 0.56426859 2.1010001
-0.9224391 0.57427335 2.1010001
-0.91500694 0.57541674 2.1010001
-0.90643144 0.57627428 2.1010001
-0.93444479 0.58627909 2.1010001
-0.92377305 0.58494514 2.1010001
-0.91443521 0.58387792 2.1010001
-0.90643144 0.58627909 2.1010001
-0.91329187 0.5937112 2.1010001
-0.90643144 0.59028095 2.1010001
-0.91243434 0.60428768 2.1010001
-0.91203415 0.61429238 2.1010001
-0.90643144 0.61429238 2.1010001
-0.90643144 0.62229621 2.1010001
-0.91243434 0.63830382 2.1010001
-0.90242958 0.6343019 2.1010001
-0.89842767 0.63230097 2.1010001
-0.9136349 0.64390647 2.1010001
-0.90443051 0.64430666 2.1010001
-0.89842767 0.64430666 2.1010001
-0.91843718 0.65431142 2.1010001
-0.91843718 0.66431618 2.1010001
-0.91543579 0.67532146 2.1010001
-0.90443051 0.67832291 2.1010001
-0.89842767 0.67832291 2.1010001
-0.9224391 0.6843257 2.1010001
-0.91443527 0.6843257 2.1010001
-0.89842767 0.68232477 2.1010001
-0.9357788 0.69699842 2.1010001
-0.92403984 0.69513094 2.1010001
-0.91843718 0.6903286 2.1010001
-0.92377305 0.70500225 2.1010001
-0.91843718 0.70233428 2.1010001
-0.92343956 0.7153405 2.1010001
-0.93044287 0.72634572 2.1010001
-0.92444003 0.72434479 2.1010001
-0.91443527 0.72434479 2.1010001
-0.92403984 0.73354918 2.1010001
-0.91576928 0.7356835 2.1010001
-0.93044287 0.74435437 2.1010001
-0.92644101 0.74435437 2.1010001
-0.93044287 0.75435907 2.1010001
-0.92644101 0.75435907 2.1010001
-0.93344426 0.76536435 2.1010001
-0.92444003 0.76436383 2.1010001
-0.91543573 0.76336336 2.1010001
-0.93044287 0.77036667 2.1010001
-0.9224391 0.77436858 2.1010001
-0.91603601 0.77516896 2.1010001
-0.9224391 0.7843734 2.1010001
-0.91710323 0.78370637 2.1010001
-0.9224391 0.7943781 2.1010001
-0.91557866 0.7943781 2.1010001
-0.90242958 0.7943781 2.1010001
-0.89575976 0.79571217 2.1010001
-0.92444003 0.80438292 2.1010001
-0.91443521 0.80438286 2.1010001
-0.90443051 0.80438292 2.1010001
-0.89709371 0.8050499 2.1010001
-0.93044287 0.81038576 2.1010001
-0.92444009 0.81438762 2.1010001
-0.91443515 0.81438756 2.1010001
-0.90643144 0.81438762 2.1010001
-0.89642668 0.81038576 2.1010001
-0.93177682 0.82505941 2.1010001
-0.92444003 0.82439238 2.1010001
-0.91843718 0.82239145 2.1010001
-0.90242958 0.82239145 2.1010001
-0.89642668 0.82239145 2.1010001
-0.95045239 0.83039528 2.1010001
-0.94645053 0.83039528 2.1010001
-0.93330139 0.83382553 2.1010001
-0.92644101 0.83439714 2.1010001
-0.94645053 0.84640288 2.1010001
-0.93044287 0.84440196 2.1010001
-0.92644101 0.84440196 2.1010001
-0.92403984 0.85440671 2.1010001
-0.91843718 0.85440671 2.1010001
-0.92377305 0.86507845 2.1010001
-0.95245332 0.87641722 2.1010001
-0.94645053 0.87441617 2.1010001
-0.93444479 0.87641716 2.1010001
-0.92443997 0.87441629 2.1010001
-0.91843718 0.87641716 2.1010001
-0.89042383 0.87041432 2.1010001
-1.06304 0.41676003 2.1140001
-1.0355245 0.48387113 2.1140001
-1.0268 0.48924002 2.1140001
-0.98250669 0.48924002 2.1140001
-0.96640003 0.48924002 2.1140001
-1.0227734 0.49326667 2.1140001
-1.0153912 0.49460891 2.1140001
-1.0056599 0.49427333 2.1140001
-0.99660003 0.49326667 2.1140001
-0.95432001 0.49326667 2.1140001
-0.94425339 0.49528003 2.1140001
-0.9341867 0.49528 2.1140001
-0.92512667 0.49628669 2.1140001
-0.93217337 0.50534666 2.1140001
-0.92412007 0.50534666 2.1140001
-0.91445607 0.50534666 2.1140001
-0.90499336 0.50635338 2.1140001
-0.89996004 0.50937337 2.1140001
-0.92331469 0.51501071 2.1140001
-0.91405338 0.51541334 2.1140001
-0.90600002 0.51541334 2.1140001
-0.92210668 0.52548003 2.1140001
-0.91405338 0.52548003 2.1140001
-0.90599996 0.52548003 2.1140001
-0.92210668 0.53353333 2.1140001
-0.91405338 0.53554666 2.1140001
-0.90667111 0.53621781 2.1140001
-0.92210674 0.54561335 2.1140001
-0.91405344 0.54561335 2.1140001
-0.90801334 0.54561335 2.1140001
-0.92009336 0.55568004 2.1140001
-0.91405338 0.55568004 2.1140001
-0.90801334 0.55568004 2.1140001
-0.92170399 0.56655204 2.1140001
-0.91405344 0.56574672 2.1140001
-0.90801334 0.56574667 2.1140001
-0.92009336 0.57380003 2.1140001
-0.91405338 0.57380003 2.1140001
-0.90801334 0.57581335 2.1140001
-0.92009336 0.58990669 2.1140001
-0.91204005 0.58588004 2.1140001
-0.90700668 0.5868867 2.1140001
-0.91204005 0.59796 2.1140001
-0.90667111 0.59527558 2.1140001
-0.91204005 0.60400003 2.1140001
-0.90801334 0.60198671 2.1140001
-0.91204005 0.61406672 2.1140001
-0.90801334 0.62614667 2.1140001
-0.90801334 0.63017339 2.1140001
-0.92009336 0.65634668 2.1140001
-0.91405338 0.65634668 2.1140001
-0.90801334 0.65634668 2.1140001
-0.92009336 0.66440004 2.1140001
-0.91405338 0.66440004 2.1140001
-0.90801334 0.66238672 2.1140001
-0.92009336 0.67446667 2.1140001
-0.91405338 0.67446667 2.1140001
-0.90600002 0.67849338 2.1140001
-0.92009336 0.68654668 2.1140001
-0.91204005 0.68654668 2.1140001
-0.90801334 0.68654668 2.1140001
-0.92110002 0.69560671 2.1140001
-0.91365069 0.69540536 2.1140001
-0.90599996 0.69460005 2.1140001
-0.89996004 0.69661337 2.1140001
-0.92143559 0.70399553 2.1140001
-0.91405338 0.70466667 2.1140001
-0.90600002 0.70466667 2.1140001
-0.89996004 0.70466667 2.1140001
-0.92210668 0.71473336 2.1140001
-0.91405344 0.71473336 2.1140001
-0.90599996 0.71473336 2.1140001
-0.89996004 0.71876001 2.1140001
-0.92277783 0.7241289 2.1140001
-0.91405338 0.72479999 2.1140001
-0.90600002 0.72479999 2.1140001
-0.89996004 0.72681338 2.1140001
-0.92311335 0.73587334 2.1140001
-0.91405338 0.73486668 2.1140001
-0.90599996 0.73486668 2.1140001
-0.89996004 0.73486668 2.1140001
-0.92412001 0.74694663 2.1140001
-0.91405338 0.74493337 2.1140001
-0.90600002 0.74493337 2.1140001
-0.89996004 0.74493337 2.1140001
-0.92412007 0.75500005 2.1140001
-0.91405344 0.75500005 2.1140001
-0.90599996 0.75500005 2.1140001
-0.89996004 0.75298667 2.1140001
-0.92412001 0.76305336 2.1140001
-0.91338229 0.76439553 2.1140001
-0.90600002 0.76506668 2.1140001
-0.92009336 0.77110672 2.1140001
-0.91405344 0.77513337 2.1140001
-0.90700668 0.77614003 2.1140001
-0.91405338 0.7852 2.1140001
-0.90600002 0.7852 2.1140001
-0.89996004 0.7852 2.1140001
-0.92009336 0.79124004 2.1140001
-0.91365069 0.79446137 2.1140001
-0.90499336 0.79426003 2.1140001
-0.8986178 0.79392451 2.1140001
-0.91405338 0.80332005 2.1140001
-0.92009336 0.82748002 2.1140001
-0.91405338 0.82748002 2.1140001
-0.92361671 0.83603662 2.1140001
-0.91338229 0.83284885 2.1140001
-0.90700668 0.83452672 2.1140001
-0.89996004 0.83150667 2.1140001
-0.92412001 0.84560007 2.1140001
-0.92277783 0.85432452 2.1140001
-0.91606671 0.85969335 2.1140001
-0.90398669 0.85969335 2.1140001
-0.92210668 0.86573339 2.1140001
-0.91606671 0.86372006 2.1140001
-0.92170399 0.87499464 2.1140001
-0.89694005 0.87277997 2.1140001
-0.88788003 0.87177336 2.1140001
-0.92009336 0.88385338 2.1140001
-1.0756543 0.41932288 2.1270001
-0.92372572 0.46794 2.1270001
-1.0331143 0.48819715 2.1270001
-0.9905743 0.48819715 2.1270001
-0.98652291 0.48819715 2.1270001
-0.93385434 0.48819715 2.1270001
-0.92372566 0.48414573 2.1270001
-0.91629815 0.48279524 2.1270001
-1.0250114 0.49224859 2.1270001
-1.0148829 0.49224862 2.1270001
-1.0047543 0.49224859 2.1270001
-0.99665147 0.49224859 2.1270001
-0.98247147 0.49224859 2.1270001
-0.97842002 0.49224859 2.1270001
-0.96424007 0.49224859 2.1270001
-0.9541114 0.49224862 2.1270001
-0.9439829 0.49224859 2.1270001
-0.93588006 0.49224859 2.1270001
-0.92575145 0.49427429 2.1270001
-0.92170006 0.50035143 2.1270001
-0.91494769 0.50710386 2.1270001
-0.90549433 0.52263427 2.1270001
-0.90954572 0.53681433 2.1270001
-0.90819526 0.54761815 2.1270001
-0.90752006 0.55504572 2.1270001
-0.90954572 0.56112289 2.1270001
-0.90752006 0.5894829 2.1270001
-0.91359717 0.60974002 2.1270001
-0.90853286 0.60467577 2.1270001
-0.91359717 0.61581719 2.1270001
-0.91359717 0.62392002 2.1270001
-0.90954572 0.66443431 2.1270001
-0.91359717 0.67456287 2.1270001
-0.90954572 0.67456287 2.1270001
-0.90549433 0.71710289 2.1270001
-0.90144289 0.73938572 2.1270001
-0.90144289 0.74748862 2.1270001
-0.90144283 0.75559145 2.1270001
-0.90414381 0.76504475 2.1270001
-0.90549439 0.77517337 2.1270001
-0.90279341 0.78530192 2.1270001
-0.90144289 0.7920543 2.1270001
-0.92170006 0.84472293 2.1270001
-0.91629815 0.84742385 2.1270001
-0.90549427 0.84472293 2.1270001
-0.92170006 0.85485148 2.1270001
-0.91562289 0.85485148 2.1270001
-0.90752006 0.85485142 2.1270001
-0.92170006 0.8609286 2.1270001
-0.91562289 0.86498004 2.1270001
-0.90616959 0.86565536 2.1270001
-0.89739144 0.86903149 2.1270001
-0.92170006 0.8751086 2.1270001
-0.91562289 0.8751086 2.1270001
-0.90650713 0.87409574 2.1270001
-0.89536572 0.87308288 2.1270001
-0.92170006 0.88523722 2.1270001
-0.91562295 0.88523722 2.1270001
-0.90792513 0.88604748 2.1270001
-1.0863048 0.42392382 2.1400001
-0.93480635 0.47487617 2.1400001
-0.92488766 0.47569141 2.1400001
-0.91918099 0.4748762 2.1400001
-1.0353525 0.48710477 2.1400001
-1.0251619 0.48710477 2.1400001
-1.0170096 0.48710477 2.1400001
-0.94567621 0.48506668 2.1400001
-0.93752384 0.48506668 2.1400001
-0.91646355 0.48438731 2.1400001
-1.0333143 0.49118096 2.1400001
-1.0251619 0.49118099 2.1400001
-1.0149715 0.49118096 2.1400001
-1.0047809 0.49118099 2.1400001
-0.98440003 0.49118096 2.1400001
-0.97420955 0.49118096 2.1400001
-0.95586663 0.49118099 2.1400001
-0.94567621 0.49118096 2.1400001
-0.93548572 0.49118096 2.1400001
-0.92325717 0.49525714 2.1400001
-0.91755044 0.49444193 2.1400001
-0.92325717 0.50340956 2.1400001
-0.91918099 0.50340956 2.1400001
-0.91238737 0.56726986 2.1400001
-0.91374612 0.57406354 2.1400001
-0.91306669 0.58493334 2.1400001
-0.91102862 0.6093905 2.1400001
-0.91510481 0.61754286 2.1400001
-0.91510481 0.62569529 2.1400001
-0.91102862 0.78466672 2.1400001
-0.90695244 0.78466672 2.1400001
-0.90695244 0.85803813 2.1400001
-0.90491432 0.86415243 2.1400001
-0.90491432 0.87026668 2.1400001
-0.95552194 0.47366002 2.1530001
-0.94732004 0.47571051 2.1530001
-0.9657743 0.48596287 2.1530001
-0.95620543 0.48322892 2.1530001
-0.94732004 0.48186192 2.1530001
-1.0518943 0.49006382 2.1530001
-1.0477934 0.49006382 2.1530001
-1.0190867 0.49006382 2.1530001
-1.0047333 0.49006382 2.1530001
-0.99345577 0.49108908 2.1530001
-0.98422861 0.49006382 2.1530001
-0.97534323 0.49143079 2.1530001
-0.96679956 0.49108905 2.1530001
-0.9575724 0.49006382 2.1530001
-0.91656291 0.58028477 2.1530001
-0.91246194 0.77713048 2.1530001
-0.98237336 0.46848479 2.1670001
-0.98237336 0.47467622 2.1670001
-0.97411811 0.47467622 2.1670001
-0.96792668 0.47674003 2.1670001
-0.99269241 0.48912287 2.1670001
-0.98443723 0.48499522 2.1670001
-0.97411811 0.48293144 2.1670001
-0.96655083 0.48224351 2.1670001
-0.95760763 0.48086762 2.1670001
-1.0215857 0.49325049 2.1670001
-1.0174581 0.49325049 2.1670001
-0.99495149 0.47566572 2.181
-1.0046449 0.48674384 2.181
-0.99910575 0.48605144 2.181
-1.0406486 0.49228287 2.181
-1.0344172 0.49228287 2.181
-1.0240315 0.49228287 2.181
-1.0157229 0.49228287 2.181
-1.0053372 0.49228287 2.181
-1.013419 0.48685905 2.194
-1.0071505 0.48268002 2.194
-1.0322248 0.49312764 2.194
-1.0238667 0.49103811 2.194
-1.0175982 0.49103811 2.194
-1.0114744 0.4773486 2.2080002
-1.0339048 0.48856381 2.2080002
-1.0261943 0.48786288 2.2080002
-1.0156801 0.4829562 2.2080002
-1.0640458 0.49837717 2.2080002
-1.0577372 0.49837717 2.2080002
-1.04512 0.49417147 2.2080002
-1.0246972 0.47424001 2.223
-1.0183457 0.47635716 2.223
-1.0437515 0.48906001 2.223
-1.035283 0.48482573 2.223
-1.0254029 0.48200285 2.223
-1.05222 0.4932943 2.223
-1.0479858 0.4932943 2.223
-1.037542 0.47722667 2.237
-1.0535204 0.48681381 2.237
-1.0439334 0.48361811 2.237
-1.037542 0.48361811 2.237
-1.0567162 0.49214002 2.237
-1.0844125 0.50492287 2.237
-1.0716295 0.50066191 2.237
-1.0673686 0.50066191 2.237
-1.072381 0.49972954 2.2520001
-1.0831048 0.50401908 2.2520001
-1.0812057 0.46830669 2.266
-1.0768895 0.46830669 2.266
-1.0984706 0.47693905 2.266
-1.0833638 0.47478098 2.266
-1.0768895 0.47262287 2.266
-1.0725734 0.48988762 2.266
